2.0572700195 2.0680029297 2.0747565918 2.0819628906 2.0853745117 2.0899086914 2.0959160156 2.1056745605 2.1119667969 2.1164421387 2.1186923828 2.1194208984 2.1231687012 2.1266225586 2.1318625488 2.1319499512 2.1313820801 2.1292985840 2.1294216309 2.1308195801 2.1338371582 2.1355966797 2.1350979004 2.1369006348 2.1372600098 2.1376164551 2.1371347656 2.1353115234 2.1354716797 2.1356201172 2.1395432129 2.1403803711 2.1390310059 2.1377888184 2.1385329590 2.1419997559 2.1542968750 2.1680310059 2.1794047852 2.1846726074 2.1950578613 2.2068566895 2.2194172363 2.2337517090 2.2494462891 2.2639941406 2.2718146973 2.2815231934 2.2945144043 2.3090747070 2.3256098633 2.3411242676 2.3535930176 2.3633828125 2.3837055664 2.4246970215 0.0000000000 2.6965197754 2.7265808105 2.7534770508 2.7618244629 2.7783039551 2.8219753418 2.8241350098 0.0000000000 0.0000000000 0.0000000000 0.0000000000 0.0000000000 0.0000000000 0.0000000000 0.0000000000 0.0000000000 0.0000000000 0.0000000000 0.0000000000 0.0000000000 0.0000000000 0.6452076416 0.6466601563 0.6446502686 0.6325997314 0.6528258667 0.6510280762 0.6527634277 0.6501524048 0.6533782349 0.6524178467 0.6545648193 0.6557333374 0.6515445557 0.6540413208 0.6511125488 0.6566699219 0.6615755615 0.6654725342 0.6639923096 0.6623264160 0.6666132202 0.6713297119 0.6694561768 0.6628905029 0.6599963379 0.6650808716 0.6739417114 0.6732183838 0.6714905396 0.6710964355 0.6721597900 0.6713628540 0.6689121094 0.6688123169 0.6682762451 0.6691264038 0.6685798340 0.6664077759 0.6692692261 0.6696276245 0.6701754150 0.6648999634 0.6703826904 0.6700543823 0.6698572998 0.6662030640 0.6643140869 0.6671499634 0.6634319458 0.6661486816 0.6641218872 0.6681885986 0.6713978271 0.6837796021 0.6867351074 0.6870816040 0.6355247192 0.6226043701 0.6325467529 0.6441262817 0.6496457520 0.6862495117 0.6813739624 0.0000000000 0.0000000000 0.0000000000 0.0000000000 0.0000000000 0.0000000000 0.0000000000 0.0000000000 0.0000000000 0.0000000000 0.0000000000 0.0000000000 0.0000000000 0.0000000000 0.0000000000 0.0000000000 0.0000000000 0.0000000000 0.0000000000 0.0000000000 0.0000000000 0.0000000000 0.0000000000 0.0000000000 0.0000000000 0.0000000000 0.0000000000 0.0000000000 0.0000000000 0.0000000000 0.0000000000 0.0000000000 0.0000000000 0.0000000000 0.0000000000 0.0000000000 0.0000000000 0.0000000000 0.0000000000 0.0000000000 0.0000000000 0.0000000000 0.0000000000 0.0000000000 0.0000000000 0.0000000000 0.0000000000 0.0000000000 0.0000000000 0.0000000000 0.0000000000 0.0000000000 0.0000000000 0.0000000000 0.0000000000 0.0000000000 0.0000000000 0.0000000000 0.0000000000 0.0000000000 0.0000000000 0.0000000000 0.0000000000 0.0000000000 0.0000000000 0.0000000000 0.0000000000 0.0000000000 0.0000000000 0.0000000000 0.0000000000 0.0000000000 0.0000000000 0.0000000000 0.0000000000 0.0000000000 0.0000000000 0.0000000000 0.0000000000 0.0000000000 0.0000000000 0.0000000000 0.0000000000 0.0000000000 0.0000000000 0.0000000000 0.0000000000 0.0000000000
2.0539580078 2.0684196777 2.0753833008 2.0814184570 2.0851582031 2.0897663574 2.0966413574 2.1072673340 2.1136811523 2.1162561035 2.1170097656 2.1171508789 2.1205368652 2.1240112305 2.1302192383 2.1281486816 2.1286008301 2.1273654785 2.1302924805 2.1326125488 2.1361354980 2.1366530762 2.1336013184 2.1345864258 2.1343391113 2.1353784180 2.1334965820 2.1329807129 2.1336889648 2.1336547852 2.1362172852 2.1372629395 2.1364084473 2.1366945801 2.1368442383 2.1399895020 2.1512436523 2.1641079102 2.1778708496 2.1823024902 2.1958730469 2.2070297852 2.2220478516 2.2337570801 2.2481420898 2.2565888672 2.2652290039 2.2773745117 2.2933735352 2.3077343750 2.3226552734 2.3375102539 2.3470029297 2.3580581055 2.3773908691 0.0000000000 0.0000000000 2.6986916504 2.7368227539 2.7633886719 2.7634301758 2.7715246582 2.7938496094 0.0000000000 0.0000000000 0.0000000000 0.0000000000 0.0000000000 0.0000000000 0.0000000000 0.0000000000 0.0000000000 0.0000000000 0.0000000000 0.0000000000 0.0000000000 0.0000000000 0.0000000000 0.0000000000 0.6482150269 0.6503349609 0.6557123413 0.6448356323 0.6480120239 0.6499651489 0.6495908813 0.6548798828 0.6547843018 0.6571502075 0.6553134155 0.6522779541 0.6568698120 0.6567479858 0.6621454468 0.6571528320 0.6581381226 0.6564624023 0.6584953003 0.6660775146 0.6711983643 0.6700435181 0.6656365967 0.6667045288 0.6735484009 0.6800281372 0.6748364868 0.6721862793 0.6703161011 0.6717050171 0.6675205078 0.6659921265 0.6663894043 0.6690252075 0.6708870239 0.6687354126 0.6659660645 0.6672207642 0.6709962769 0.6728690796 0.6681956787 0.6696059570 0.6681974487 0.6690962524 0.6679681396 0.6651585083 0.6655971069 0.6645809937 0.6640361328 0.6645112305 0.6665980835 0.6731345825 0.6829140625 0.6855911865 0.6831295166 0.6346630249 0.6244943237 0.6444684448 0.6297462769 0.0000000000 0.0000000000 0.0000000000 0.0000000000 0.0000000000 0.0000000000 0.0000000000 0.0000000000 0.0000000000 0.0000000000 0.0000000000 0.0000000000 0.0000000000 0.0000000000 0.0000000000 0.0000000000 0.0000000000 0.0000000000 0.0000000000 0.0000000000 0.0000000000 0.0000000000 0.0000000000 0.0000000000 0.0000000000 0.0000000000 0.0000000000 0.0000000000 0.0000000000 0.0000000000 0.0000000000 0.0000000000 0.0000000000 0.0000000000 0.0000000000 0.0000000000 0.0000000000 0.0000000000 0.0000000000 0.0000000000 0.0000000000 0.0000000000 0.0000000000 0.0000000000 0.0000000000 0.0000000000 0.0000000000 0.0000000000 0.0000000000 0.0000000000 0.0000000000 0.0000000000 0.0000000000 0.0000000000 0.0000000000 0.0000000000 0.0000000000 0.0000000000 0.0000000000 0.0000000000 0.0000000000 0.0000000000 0.0000000000 0.0000000000 0.0000000000 0.0000000000 0.0000000000 0.0000000000 0.0000000000 0.0000000000 0.0000000000 0.0000000000 0.0000000000 0.0000000000 0.0000000000 0.0000000000 0.0000000000 0.0000000000 0.0000000000 0.0000000000 0.0000000000 0.0000000000 0.0000000000 0.0000000000 0.0000000000 0.0000000000 0.0000000000 0.0000000000 0.0000000000 0.0000000000 0.0000000000
2.0504553223 2.0648369141 2.0736027832 2.0817023926 2.0889040527 2.0940703125 2.0987111816 2.1065187988 2.1130507813 2.1168496094 2.1204536133 2.1210258789 2.1227602539 2.1243605957 2.1290791016 2.1286318359 2.1287116699 2.1261269531 2.1300622559 2.1326000977 2.1373117676 2.1384392090 2.1362941895 2.1373356934 2.1351557617 2.1362575684 2.1349619141 2.1347705078 2.1357253418 2.1334787598 2.1359550781 2.1367795410 2.1397512207 2.1414399414 2.1427299805 2.1439804688 2.1548881836 2.1651716309 2.1793288574 2.1853942871 2.2011281738 2.2141528320 2.2279904785 2.2362565918 2.2482822266 2.2558630371 2.2656904297 2.2788698730 2.2936542969 2.3085717773 2.3208708496 2.3378447266 2.3505581055 2.3651708984 2.3904284668 0.0000000000 0.0000000000 2.7048896484 2.7461071777 2.7682236328 2.7652753906 2.7646110840 0.0000000000 2.7592724609 0.0000000000 0.0000000000 0.0000000000 0.0000000000 0.0000000000 0.0000000000 0.0000000000 0.0000000000 0.0000000000 0.0000000000 0.0000000000 0.0000000000 0.0000000000 0.0000000000 0.6243580933 0.6509871826 0.6644165039 0.6503827515 0.6461856079 0.6423593750 0.6529915161 0.6553782959 0.6578638306 0.6555355225 0.6566928101 0.6575134277 0.6586670532 0.6664132690 0.6655019531 0.6643701782 0.6550474243 0.6531554565 0.6503634644 0.6512973022 0.6572926636 0.6664462280 0.6652623291 0.6659872437 0.6660198364 0.6742031250 0.6760440674 0.6762643433 0.6703058472 0.6707421265 0.6705945435 0.6686240234 0.6663031616 0.6635941772 0.6680419922 0.6700617676 0.6695911865 0.6683929443 0.6687106323 0.6717856445 0.6713898926 0.6688757324 0.6709342041 0.6711726685 0.6724434814 0.6701864624 0.6699896851 0.6689835815 0.6666552124 0.6641624756 0.6618203125 0.6644742432 0.6741239624 0.6869553833 0.6894122314 0.6866467285 0.6499449463 0.6274035645 0.6247340088 0.5611232910 0.0000000000 0.0000000000 0.0000000000 0.0000000000 0.0000000000 0.0000000000 0.0000000000 0.0000000000 0.0000000000 0.0000000000 0.0000000000 0.0000000000 0.0000000000 0.0000000000 0.0000000000 0.0000000000 0.0000000000 0.0000000000 0.0000000000 0.0000000000 0.0000000000 0.0000000000 0.0000000000 0.0000000000 0.0000000000 0.0000000000 0.0000000000 0.0000000000 0.0000000000 0.0000000000 0.0000000000 0.0000000000 0.0000000000 0.0000000000 0.0000000000 0.0000000000 0.0000000000 0.0000000000 0.0000000000 0.0000000000 0.0000000000 0.0000000000 0.0000000000 0.0000000000 0.0000000000 0.0000000000 0.0000000000 0.0000000000 0.0000000000 0.0000000000 0.0000000000 0.0000000000 0.0000000000 0.0000000000 0.0000000000 0.0000000000 0.0000000000 0.0000000000 0.0000000000 0.0000000000 0.0000000000 0.0000000000 0.0000000000 0.0000000000 0.0000000000 0.0000000000 0.0000000000 0.0000000000 0.0000000000 0.0000000000 0.0000000000 0.0000000000 0.0000000000 0.0000000000 0.0000000000 0.0000000000 0.0000000000 0.0000000000 0.0000000000 0.0000000000 0.0000000000 0.0000000000 0.0000000000 0.0000000000 0.0000000000 0.0000000000 0.0000000000 0.0000000000 0.0000000000 0.0000000000 0.0000000000
2.0483767090 2.0613002930 2.0711457520 2.0805937500 2.0883386230 2.0933781738 2.0969963379 2.1028520508 2.1098957520 2.1178259277 2.1212265625 2.1227109375 2.1201835938 2.1215859375 2.1257956543 2.1286564941 2.1293999023 2.1284213867 2.1342602539 2.1348571777 2.1344350586 2.1318066406 2.1316743164 2.1350954590 2.1341689453 2.1360637207 2.1331459961 2.1340461426 2.1346596680 2.1346794434 2.1356623535 2.1351923828 2.1385771484 2.1399804688 2.1414211426 2.1432556152 2.1545358887 2.1684777832 2.1798146973 2.1847004395 2.2011264648 2.2142150879 2.2280686035 2.2341242676 2.2437043457 2.2529887695 2.2640893555 2.2771271973 2.2911645508 2.3063278809 2.3220034180 2.3379763184 2.3500439453 2.3649167480 2.3903898926 0.0000000000 2.6665222168 2.7017644043 2.7246232910 2.7595175781 2.7882646484 2.7518437500 2.7562114258 2.7643532715 0.0000000000 0.0000000000 0.0000000000 0.0000000000 0.0000000000 0.0000000000 0.0000000000 0.0000000000 0.0000000000 0.0000000000 0.0000000000 0.0000000000 0.0000000000 0.0000000000 0.0000000000 0.6449973145 0.6503403931 0.6468378906 0.6414868774 0.6425947266 0.6497860107 0.6534517822 0.6541310425 0.6547331543 0.6572986450 0.6569345703 0.6562731934 0.6612007446 0.6617274780 0.6574924927 0.6519437256 0.6488775635 0.6474993896 0.6461840820 0.6533783569 0.6603626709 0.6655014038 0.6655261841 0.6683546143 0.6739510498 0.6728273926 0.6733110962 0.6676903076 0.6664073486 0.6645408325 0.6672337036 0.6701593018 0.6663477783 0.6690801392 0.6686132812 0.6685050049 0.6657041016 0.6672593994 0.6700270386 0.6689168091 0.6674038696 0.6677188110 0.6716361694 0.6715830078 0.6717727051 0.6694421997 0.6696312256 0.6637427979 0.6594610596 0.6592922974 0.6615985107 0.6764257812 0.6858424683 0.6876552734 0.6830432739 0.6524766846 0.6413720093 0.6225748901 0.0000000000 0.0000000000 0.0000000000 0.0000000000 0.0000000000 0.0000000000 0.0000000000 0.0000000000 0.0000000000 0.0000000000 0.0000000000 0.0000000000 0.0000000000 0.0000000000 0.0000000000 0.0000000000 0.0000000000 0.0000000000 0.0000000000 0.0000000000 0.0000000000 0.0000000000 0.0000000000 0.0000000000 0.0000000000 0.0000000000 0.0000000000 0.0000000000 0.0000000000 0.0000000000 0.0000000000 0.0000000000 0.0000000000 0.0000000000 0.0000000000 0.0000000000 0.0000000000 0.0000000000 0.0000000000 0.0000000000 0.0000000000 0.0000000000 0.0000000000 0.0000000000 0.0000000000 0.0000000000 0.0000000000 0.0000000000 0.0000000000 0.0000000000 0.0000000000 0.0000000000 0.0000000000 0.0000000000 0.0000000000 0.0000000000 0.0000000000 0.0000000000 0.0000000000 0.0000000000 0.0000000000 0.0000000000 0.0000000000 0.0000000000 0.0000000000 0.0000000000 0.0000000000 0.0000000000 0.0000000000 0.0000000000 0.0000000000 0.0000000000 0.0000000000 0.0000000000 0.0000000000 0.0000000000 0.0000000000 0.0000000000 0.0000000000 0.0000000000 0.0000000000 0.0000000000 0.0000000000 0.0000000000 0.0000000000 0.0000000000 0.0000000000 0.0000000000 0.0000000000 0.0000000000 0.0000000000 0.0000000000
2.0545761719 2.0607573242 2.0681853027 2.0771330566 2.0873703613 2.0957478027 2.0974626465 2.1023054199 2.1054260254 2.1162563477 2.1195805664 2.1241975098 2.1221809082 2.1250556641 2.1269096680 2.1311105957 2.1312624512 2.1321318359 2.1353281250 2.1347189941 2.1340837402 2.1323786621 2.1336201172 2.1367165527 2.1366125488 2.1384160156 2.1365126953 2.1367641602 2.1385822754 2.1397099609 2.1410610352 2.1391770020 2.1407309570 2.1414521484 2.1446787109 2.1477280273 2.1585292969 2.1687614746 2.1779365234 2.1834396973 2.2007229004 2.2143225098 2.2309460449 2.2386628418 2.2484833984 2.2584455566 2.2717851562 2.2841674805 2.2945524902 2.3088454590 2.3268803711 2.3420087891 2.3550324707 2.3656755371 2.3908400879 0.0000000000 2.6861865234 2.7102346191 2.7214877930 2.7470024414 2.7811604004 2.8060336914 2.7904372559 2.8463894043 0.0000000000 0.0000000000 0.0000000000 0.0000000000 0.0000000000 0.0000000000 0.0000000000 0.0000000000 0.0000000000 0.0000000000 0.0000000000 0.0000000000 0.0000000000 0.0000000000 0.6361564941 0.6383143921 0.6458594360 0.6506913452 0.6553157349 0.6565111694 0.6570093384 0.6586365356 0.6563501587 0.6600264282 0.6599474487 0.6598361816 0.6599024658 0.6645939331 0.6631857300 0.6586795654 0.6597012939 0.6563865967 0.6552919922 0.6497561035 0.6521019287 0.6558933105 0.6625657349 0.6673415527 0.6718024902 0.6709854736 0.6649160156 0.6656444702 0.6667979126 0.6705429687 0.6655724487 0.6675894775 0.6696900024 0.6704876709 0.6718893433 0.6724774780 0.6708071289 0.6679617310 0.6666483765 0.6678598633 0.6688176270 0.6707874146 0.6690910645 0.6739482422 0.6699013672 0.6731660767 0.6678411865 0.6715769653 0.6677377319 0.6648090210 0.6626727295 0.6632319946 0.6756388550 0.6859048462 0.6874157715 0.6815999756 0.6489096680 0.6521040039 0.6391457520 0.0000000000 0.0000000000 0.0000000000 0.6581605225 0.6571762085 0.0000000000 0.0000000000 0.0000000000 0.0000000000 0.0000000000 0.0000000000 0.0000000000 0.0000000000 0.0000000000 0.0000000000 0.0000000000 0.0000000000 0.0000000000 0.0000000000 0.0000000000 0.0000000000 0.0000000000 0.0000000000 0.0000000000 0.0000000000 0.0000000000 0.0000000000 0.0000000000 0.0000000000 0.0000000000 0.0000000000 0.0000000000 0.0000000000 0.0000000000 0.0000000000 0.0000000000 0.0000000000 0.0000000000 0.0000000000 0.0000000000 0.0000000000 0.0000000000 0.0000000000 0.0000000000 0.0000000000 0.0000000000 0.0000000000 0.0000000000 0.0000000000 0.0000000000 0.0000000000 0.0000000000 0.0000000000 0.0000000000 0.0000000000 0.0000000000 0.0000000000 0.0000000000 0.0000000000 0.0000000000 0.0000000000 0.0000000000 0.0000000000 0.0000000000 0.0000000000 0.0000000000 0.0000000000 0.0000000000 0.0000000000 0.0000000000 0.0000000000 0.0000000000 0.0000000000 0.0000000000 0.0000000000 0.0000000000 0.0000000000 0.0000000000 0.0000000000 0.0000000000 0.0000000000 0.0000000000 0.0000000000 0.0000000000 0.0000000000 0.0000000000 0.0000000000 0.0000000000 0.0000000000 0.0000000000 0.0000000000 0.0000000000
2.0557250977 2.0619899902 2.0671997070 2.0738015137 2.0845742188 2.0959521484 2.1005288086 2.1053647461 2.1069282227 2.1132587891 2.1155107422 2.1193613281 2.1203850098 2.1262236328 2.1268986816 2.1288781738 2.1274138184 2.1299531250 2.1327829590 2.1316003418 2.1310957031 2.1296762695 2.1311166992 2.1334985352 2.1336354980 2.1358635254 2.1337150879 2.1349694824 2.1363498535 2.1389340820 2.1405534668 2.1385043945 2.1380151367 2.1365209961 2.1394836426 2.1449267578 2.1570568848 2.1655544434 2.1737685547 2.1793657227 2.1950554199 2.2089294434 2.2288212891 2.2418210449 2.2497285156 2.2595681152 2.2712995605 2.2860964355 2.2981281738 2.3109814453 2.3303767090 2.3439099121 2.3548579102 2.3606828613 2.3793874512 0.0000000000 2.6941313477 2.7223918457 2.7276914062 2.7178776855 2.7766137695 2.7911728516 2.7636960449 0.0000000000 0.0000000000 0.0000000000 0.0000000000 0.0000000000 0.0000000000 0.0000000000 0.0000000000 0.0000000000 0.0000000000 0.0000000000 0.0000000000 0.0000000000 0.0000000000 0.0000000000 0.6268067017 0.6334886475 0.6377577515 0.6493612671 0.6552129517 0.6551397095 0.6565428467 0.6548175659 0.6583724365 0.6618172607 0.6642142944 0.6614281006 0.6566168823 0.6544134521 0.6565784302 0.6571547241 0.6632230225 0.6614160767 0.6620289307 0.6573620605 0.6583897095 0.6556492920 0.6605452881 0.6652590942 0.6714982910 0.6685016479 0.6673176880 0.6675625000 0.6686206665 0.6683325195 0.6650583496 0.6597639160 0.6613215332 0.6655357056 0.6687285767 0.6698073730 0.6684275513 0.6678043213 0.6709620972 0.6702014771 0.6719942627 0.6730547485 0.6715037842 0.6696562500 0.6641370850 0.6667241211 0.6625866699 0.6650430298 0.6645241699 0.6668487549 0.6646565552 0.6653791504 0.6757173462 0.6842976074 0.6850453491 0.6788505249 0.6558666992 0.6448480835 0.0000000000 0.0000000000 0.0000000000 0.6446833496 0.6781276855 0.6631368408 0.0000000000 0.0000000000 0.0000000000 0.0000000000 0.0000000000 0.0000000000 0.0000000000 0.0000000000 0.0000000000 0.0000000000 0.0000000000 0.0000000000 0.0000000000 0.0000000000 0.0000000000 0.0000000000 0.0000000000 0.0000000000 0.0000000000 0.0000000000 0.0000000000 0.0000000000 0.0000000000 0.0000000000 0.0000000000 0.0000000000 0.0000000000 0.0000000000 0.0000000000 0.0000000000 0.0000000000 0.0000000000 0.0000000000 0.0000000000 0.0000000000 0.0000000000 0.0000000000 0.0000000000 0.0000000000 0.0000000000 0.0000000000 0.0000000000 0.0000000000 0.0000000000 0.0000000000 0.0000000000 0.0000000000 0.0000000000 0.0000000000 0.0000000000 0.0000000000 0.0000000000 0.0000000000 0.0000000000 0.0000000000 0.0000000000 0.0000000000 0.0000000000 0.0000000000 0.0000000000 0.0000000000 0.0000000000 0.0000000000 0.0000000000 0.0000000000 0.0000000000 0.0000000000 0.0000000000 0.0000000000 0.0000000000 0.0000000000 0.0000000000 0.0000000000 0.0000000000 0.0000000000 0.0000000000 0.0000000000 0.0000000000 0.0000000000 0.0000000000 0.0000000000 0.0000000000 0.0000000000 0.0000000000 0.0000000000 0.0000000000 0.0000000000
2.0573403320 2.0645866699 2.0674948730 2.0730405273 2.0841831055 2.0970671387 2.1056645508 2.1078649902 2.1075456543 2.1112692871 2.1163666992 2.1204121094 2.1225588379 2.1263666992 2.1271542969 2.1270922852 2.1253073730 2.1264875488 2.1284399414 2.1282106934 2.1314277344 2.1310981445 2.1342290039 2.1363916016 2.1369714355 2.1375764160 2.1353671875 2.1343300781 2.1353315430 2.1379511719 2.1416694336 2.1409965820 2.1395424805 2.1381984863 2.1419570313 2.1483283691 2.1596254883 2.1648610840 2.1737934570 2.1790922852 2.1918542480 2.2080935059 2.2265632324 2.2401879883 2.2512509766 2.2613234863 2.2734572754 2.2832753906 2.2949235840 2.3076203613 2.3274384766 2.3413320312 2.3537338867 2.3596750488 2.3845522461 0.0000000000 2.6940964355 2.7238378906 2.7286374512 2.7285754395 2.7498330078 0.0000000000 2.7449299316 2.7211323242 0.0000000000 0.0000000000 0.0000000000 0.0000000000 0.0000000000 0.0000000000 0.0000000000 0.0000000000 0.0000000000 0.0000000000 0.0000000000 0.0000000000 0.0000000000 0.0000000000 0.6304976196 0.6361957397 0.6468820801 0.6503627319 0.6554346313 0.6527905273 0.6493950195 0.6539519653 0.6588342896 0.6638415527 0.6660348511 0.6654509277 0.6636016235 0.6646016846 0.6612272339 0.6646286621 0.6667597046 0.6667231445 0.6652042236 0.6673373413 0.6681579590 0.6612598877 0.6618710937 0.6653324585 0.6692655029 0.6666672363 0.6684346924 0.6718757324 0.6743249512 0.6728689575 0.6697637329 0.6621049805 0.6520847778 0.6586259155 0.6624980469 0.6679852905 0.6694314575 0.6759680786 0.6769598389 0.6746571045 0.6741913452 0.6772554932 0.6739911499 0.6696289063 0.6598544922 0.6619134521 0.6584327393 0.6598972778 0.6623660889 0.6657501221 0.6684499512 0.6684865723 0.6775437012 0.6852823486 0.6861564941 0.6811636353 0.6310396729 0.0000000000 0.0000000000 0.0000000000 0.0000000000 0.6963374634 0.6724152832 0.6906558228 0.0000000000 0.0000000000 0.0000000000 0.0000000000 0.0000000000 0.0000000000 0.0000000000 0.0000000000 0.0000000000 0.0000000000 0.0000000000 0.0000000000 0.0000000000 0.0000000000 0.0000000000 0.0000000000 0.0000000000 0.0000000000 0.0000000000 0.0000000000 0.0000000000 0.0000000000 0.0000000000 0.0000000000 0.0000000000 0.0000000000 0.0000000000 0.0000000000 0.0000000000 0.0000000000 0.0000000000 0.0000000000 0.0000000000 0.0000000000 0.0000000000 0.0000000000 0.0000000000 0.0000000000 0.0000000000 0.0000000000 0.0000000000 0.0000000000 0.0000000000 0.0000000000 0.0000000000 0.0000000000 0.0000000000 0.0000000000 0.0000000000 0.0000000000 0.0000000000 0.0000000000 0.0000000000 0.0000000000 0.0000000000 0.0000000000 0.0000000000 0.0000000000 0.0000000000 0.0000000000 0.0000000000 0.0000000000 0.0000000000 0.0000000000 0.0000000000 0.0000000000 0.0000000000 0.0000000000 0.0000000000 0.0000000000 0.0000000000 0.0000000000 0.0000000000 0.0000000000 0.0000000000 0.0000000000 0.0000000000 0.0000000000 0.0000000000 0.0000000000 0.0000000000 0.0000000000 0.0000000000 0.0000000000 0.0000000000 0.0000000000 0.0000000000
2.0604458008 2.0704121094 2.0741569824 2.0783850098 2.0865683594 2.0963000488 2.1050434570 2.1074929199 2.1083991699 2.1107331543 2.1175156250 2.1213154297 2.1232143555 2.1245791016 2.1265095215 2.1257788086 2.1243740234 2.1251044922 2.1276364746 2.1277690430 2.1280502930 2.1289516602 2.1334799805 2.1353718262 2.1328806152 2.1302067871 2.1293781738 2.1313203125 2.1328259277 2.1339704590 2.1352431641 2.1353471680 2.1344047852 2.1346467285 2.1385500488 2.1456120605 2.1564323730 2.1651684570 2.1772836914 2.1831264648 2.1944428711 2.2086472168 2.2240942383 2.2350500488 2.2476494141 2.2599323730 2.2714865723 2.2793371582 2.2919150391 2.3057937012 2.3258115234 2.3391455078 2.3503457031 2.3607875977 2.3856367187 0.0000000000 0.0000000000 2.7104462891 2.7265034180 2.7315263672 0.0000000000 2.7771269531 2.7615986328 0.0000000000 0.0000000000 0.0000000000 0.0000000000 0.0000000000 0.0000000000 0.0000000000 0.0000000000 0.0000000000 0.0000000000 0.0000000000 0.0000000000 0.0000000000 0.0000000000 0.0000000000 0.6388187256 0.6492125854 0.6459785156 0.6448838501 0.6414123535 0.6402570801 0.6414351196 0.6441991577 0.6553588867 0.6587812500 0.6628351440 0.6624431152 0.6642155151 0.6634243774 0.6630055542 0.6633713379 0.6637238159 0.6608432617 0.6609817505 0.6640300903 0.6683554077 0.6609350586 0.6602238770 0.6604208374 0.6626757813 0.6640203247 0.6691134033 0.6740971680 0.6732365112 0.6714447021 0.6701746216 0.6652630615 0.6552385254 0.6551162720 0.6562348022 0.6633638916 0.6701663208 0.6719632568 0.6706307983 0.6695440674 0.6721161499 0.6732738037 0.6722163086 0.6688675537 0.6644668579 0.6623708496 0.6551962280 0.6511735229 0.6519389648 0.6587943726 0.6655170288 0.6712555542 0.6789302979 0.6857687378 0.6852675171 0.6788350220 0.6312979736 0.6124201050 0.0000000000 0.0000000000 0.0000000000 0.6605464478 0.0000000000 0.0000000000 0.0000000000 0.0000000000 0.0000000000 0.0000000000 0.0000000000 0.0000000000 0.0000000000 0.0000000000 0.0000000000 0.0000000000 0.0000000000 0.0000000000 0.0000000000 0.0000000000 0.0000000000 0.0000000000 0.0000000000 0.0000000000 0.0000000000 0.0000000000 0.0000000000 0.0000000000 0.0000000000 0.0000000000 0.0000000000 0.0000000000 0.0000000000 0.0000000000 0.0000000000 0.0000000000 0.0000000000 0.0000000000 0.0000000000 0.0000000000 0.0000000000 0.0000000000 0.0000000000 0.0000000000 0.0000000000 0.0000000000 0.0000000000 0.0000000000 0.0000000000 0.0000000000 0.0000000000 0.0000000000 0.0000000000 0.0000000000 0.0000000000 0.0000000000 0.0000000000 0.0000000000 0.0000000000 0.0000000000 0.0000000000 0.0000000000 0.0000000000 0.0000000000 0.0000000000 0.0000000000 0.0000000000 0.0000000000 0.0000000000 0.0000000000 0.0000000000 0.0000000000 0.0000000000 0.0000000000 0.0000000000 0.0000000000 0.0000000000 0.0000000000 0.0000000000 0.0000000000 0.0000000000 0.0000000000 0.0000000000 0.0000000000 0.0000000000 0.0000000000 0.0000000000 0.0000000000 0.0000000000 0.0000000000 0.0000000000 0.0000000000 0.0000000000
2.0593356934 2.0719743652 2.0785732422 2.0822988281 2.0883945313 2.0953579102 2.1042851563 2.1077729492 2.1108227539 2.1139404297 2.1195400391 2.1235397949 2.1259738770 2.1253276367 2.1270734863 2.1274677734 2.1283217773 2.1288742676 2.1300998535 2.1306181641 2.1304575195 2.1314826660 2.1352036133 2.1363193359 2.1328757324 2.1271132813 2.1268034668 2.1309675293 2.1344606934 2.1340424805 2.1335412598 2.1345351563 2.1349348145 2.1382116699 2.1432062988 2.1505810547 2.1570209961 2.1669614258 2.1797854004 2.1909345703 2.1996286621 2.2112905273 2.2225285645 2.2357397461 2.2524848633 2.2637817383 2.2750080566 2.2806501465 2.2916896973 2.3051704102 2.3232810059 2.3374921875 2.3496889648 2.3652353516 2.3957290039 0.0000000000 0.0000000000 2.7131032715 2.7344831543 2.7387866211 0.0000000000 2.8545815430 2.7831760254 0.0000000000 0.0000000000 0.0000000000 0.0000000000 0.0000000000 0.0000000000 0.0000000000 0.0000000000 0.0000000000 0.0000000000 0.0000000000 0.0000000000 0.0000000000 0.0000000000 0.0000000000 0.6557084961 0.6561307373 0.6539837036 0.6472687988 0.6438594971 0.6427606201 0.6412477417 0.6436235352 0.6490593262 0.6545518188 0.6528248901 0.6572722168 0.6623355103 0.6701782837 0.6645439453 0.6641461792 0.6583880005 0.6607286987 0.6574113770 0.6586072998 0.6606987915 0.6573673096 0.6606875610 0.6647732544 0.6673486938 0.6679607544 0.6668318481 0.6698507080 0.6708150635 0.6756282959 0.6754024658 0.6706081543 0.6610422363 0.6519017944 0.6547687988 0.6651014404 0.6727108154 0.6732075195 0.6658760376 0.6668450317 0.6706289063 0.6749979858 0.6726933594 0.6728790283 0.6701894531 0.6683253174 0.6589376221 0.6579832153 0.6574785767 0.6616176758 0.6670796509 0.6716122437 0.6809337158 0.6859150391 0.6861042480 0.6808836670 0.6426588135 0.6468038330 0.0000000000 0.0000000000 0.0000000000 0.6915541382 0.0000000000 0.0000000000 0.0000000000 0.0000000000 0.0000000000 0.0000000000 0.0000000000 0.0000000000 0.0000000000 0.0000000000 0.0000000000 0.0000000000 0.0000000000 0.0000000000 0.0000000000 0.0000000000 0.0000000000 0.0000000000 0.0000000000 0.0000000000 0.0000000000 0.0000000000 0.0000000000 0.0000000000 0.0000000000 0.0000000000 0.0000000000 0.0000000000 0.0000000000 0.0000000000 0.0000000000 0.0000000000 0.0000000000 0.0000000000 0.0000000000 0.0000000000 0.0000000000 0.0000000000 0.0000000000 0.0000000000 0.0000000000 0.0000000000 0.0000000000 0.0000000000 0.0000000000 0.0000000000 0.0000000000 0.0000000000 0.0000000000 0.0000000000 0.0000000000 0.0000000000 0.0000000000 0.0000000000 0.0000000000 0.0000000000 0.0000000000 0.0000000000 0.0000000000 0.0000000000 0.0000000000 0.0000000000 0.0000000000 0.0000000000 0.0000000000 0.0000000000 0.0000000000 0.0000000000 0.0000000000 0.0000000000 0.0000000000 0.0000000000 0.0000000000 0.0000000000 0.0000000000 0.0000000000 0.0000000000 0.0000000000 0.0000000000 0.0000000000 0.0000000000 0.0000000000 0.0000000000 0.0000000000 0.0000000000 0.0000000000 0.0000000000 0.0000000000 0.0000000000
2.0570856934 2.0709279785 2.0810937500 2.0824531250 2.0867080078 2.0937043457 2.1014086914 2.1071215820 2.1114072266 2.1158190918 2.1169704590 2.1210732422 2.1237424316 2.1252426758 2.1265036621 2.1301606445 2.1325886230 2.1324599609 2.1286586914 2.1290444336 2.1292436523 2.1314863281 2.1328540039 2.1335766602 2.1297438965 2.1237827148 2.1248171387 2.1305317383 2.1353171387 2.1331037598 2.1314812012 2.1316369629 2.1328051758 2.1353747559 2.1408291016 2.1470612793 2.1552946777 2.1643684082 2.1788352051 2.1913452148 2.2026394043 2.2111608887 2.2214660645 2.2380788574 2.2549709473 2.2688525391 2.2772614746 2.2847678223 2.2966499023 2.3070688477 2.3254448242 2.3383190918 2.3508742676 2.3641606445 2.3946320801 0.0000000000 2.6783239746 2.7206096191 2.7486977539 2.7971506348 2.7940854492 2.8254477539 2.8574584961 0.0000000000 0.0000000000 0.0000000000 0.0000000000 0.0000000000 0.0000000000 0.0000000000 0.0000000000 0.0000000000 0.0000000000 0.0000000000 0.0000000000 0.0000000000 0.0000000000 0.0000000000 0.6480641479 0.6509656372 0.6486906128 0.6486038208 0.6456346436 0.6449685059 0.6432095337 0.6405134888 0.6380952148 0.6439500732 0.6508450317 0.6537116089 0.6566823120 0.6587171021 0.6614699707 0.6630917358 0.6589387817 0.6567561646 0.6513715820 0.6478817749 0.6477247925 0.6452536011 0.6521558228 0.6578587646 0.6619176636 0.6618899536 0.6637853394 0.6670885620 0.6670254517 0.6683978882 0.6726141357 0.6695108643 0.6655001221 0.6521711426 0.6480934448 0.6561879272 0.6657608643 0.6655626831 0.6620553589 0.6632326660 0.6691372070 0.6731478271 0.6721918945 0.6723215942 0.6717697754 0.6685009766 0.6622631226 0.6614445190 0.6636373291 0.6641473389 0.6638555908 0.6675585327 0.6792033081 0.6867671509 0.6869987183 0.6836848755 0.6318865967 0.6259121704 0.0000000000 0.0000000000 0.0000000000 0.6060011597 0.0000000000 0.0000000000 0.0000000000 0.0000000000 0.0000000000 0.0000000000 0.0000000000 0.0000000000 0.0000000000 0.0000000000 0.0000000000 0.0000000000 0.0000000000 0.0000000000 0.0000000000 0.0000000000 0.0000000000 0.0000000000 0.0000000000 0.0000000000 0.0000000000 0.0000000000 0.0000000000 0.0000000000 0.0000000000 0.0000000000 0.0000000000 0.0000000000 0.0000000000 0.0000000000 0.0000000000 0.0000000000 0.0000000000 0.0000000000 0.0000000000 0.0000000000 0.0000000000 0.0000000000 0.0000000000 0.0000000000 0.0000000000 0.0000000000 0.0000000000 0.0000000000 0.0000000000 0.0000000000 0.0000000000 0.0000000000 0.0000000000 0.0000000000 0.0000000000 0.0000000000 0.0000000000 0.0000000000 0.0000000000 0.0000000000 0.0000000000 0.0000000000 0.0000000000 0.0000000000 0.0000000000 0.0000000000 0.0000000000 0.0000000000 0.0000000000 0.0000000000 0.0000000000 0.0000000000 0.0000000000 0.0000000000 0.0000000000 0.0000000000 0.0000000000 0.0000000000 0.0000000000 0.0000000000 0.0000000000 0.0000000000 0.0000000000 0.0000000000 0.0000000000 0.0000000000 0.0000000000 0.0000000000 0.0000000000 0.0000000000 0.0000000000 0.0000000000 0.0000000000
2.0566538086 2.0698862305 2.0809997559 2.0851926270 2.0885385742 2.0949636230 2.1033149414 2.1089541016 2.1148830566 2.1184909668 2.1197551270 2.1215742188 2.1233618164 2.1254057617 2.1263515625 2.1317124023 2.1339311523 2.1322734375 2.1284140625 2.1298977051 2.1331000977 2.1334304199 2.1338188477 2.1361501465 2.1362023926 2.1314633789 2.1319565430 2.1354255371 2.1386528320 2.1345681152 2.1322067871 2.1329421387 2.1344018555 2.1361923828 2.1402314453 2.1475175781 2.1585649414 2.1681557617 2.1792089844 2.1905146484 2.2006875000 2.2117248535 2.2219677734 2.2385476074 2.2565297852 2.2727802734 2.2808256836 2.2886279297 2.2996984863 2.3115200195 2.3284426270 2.3403742676 2.3532570801 2.3636962891 2.3857512207 0.0000000000 0.0000000000 2.7183906250 2.7547783203 2.7921416016 2.7968557129 0.0000000000 2.7905058594 0.0000000000 0.0000000000 0.0000000000 0.0000000000 0.0000000000 0.0000000000 0.0000000000 0.0000000000 0.0000000000 0.0000000000 0.0000000000 0.0000000000 0.0000000000 0.0000000000 0.0000000000 0.6329201050 0.6433373413 0.6463248291 0.6498547974 0.6542847900 0.6541176758 0.6537792969 0.6436265869 0.6280325317 0.6393063354 0.6523302002 0.6604214478 0.6548528442 0.6560061646 0.6611502075 0.6628598633 0.6581435547 0.6563731079 0.6520156860 0.6507708740 0.6480036621 0.6411112061 0.6512033691 0.6598081665 0.6658788452 0.6622525024 0.6658856812 0.6673890381 0.6681019287 0.6651544800 0.6689800415 0.6682940674 0.6682052002 0.6609174194 0.6532107544 0.6529620361 0.6624464722 0.6664443359 0.6620502319 0.6634037476 0.6672955322 0.6730964355 0.6722391357 0.6682092285 0.6668679199 0.6655065918 0.6688837891 0.6692952271 0.6719477539 0.6692020874 0.6685748901 0.6696176147 0.6811604614 0.6887109375 0.6888928223 0.6795510254 0.5875100098 0.6065711670 0.0000000000 0.0000000000 0.0000000000 0.0000000000 0.0000000000 0.0000000000 0.0000000000 0.0000000000 0.0000000000 0.0000000000 0.0000000000 0.0000000000 0.0000000000 0.0000000000 0.0000000000 0.0000000000 0.0000000000 0.0000000000 0.0000000000 0.0000000000 0.0000000000 0.0000000000 0.0000000000 0.0000000000 0.0000000000 0.0000000000 0.0000000000 0.0000000000 0.0000000000 0.0000000000 0.0000000000 0.0000000000 0.0000000000 0.0000000000 0.0000000000 0.0000000000 0.0000000000 0.0000000000 0.0000000000 0.0000000000 0.0000000000 0.0000000000 0.0000000000 0.0000000000 0.0000000000 0.0000000000 0.0000000000 0.0000000000 0.0000000000 0.0000000000 0.0000000000 0.0000000000 0.0000000000 0.0000000000 0.0000000000 0.0000000000 0.0000000000 0.0000000000 0.0000000000 0.0000000000 0.0000000000 0.0000000000 0.0000000000 0.0000000000 0.0000000000 0.0000000000 0.0000000000 0.0000000000 0.0000000000 0.0000000000 0.0000000000 0.0000000000 0.0000000000 0.0000000000 0.0000000000 0.0000000000 0.0000000000 0.0000000000 0.0000000000 0.0000000000 0.0000000000 0.0000000000 0.0000000000 0.0000000000 0.0000000000 0.0000000000 0.0000000000 0.0000000000 0.0000000000 0.0000000000 0.0000000000 0.0000000000 0.0000000000
2.0567744141 2.0688291016 2.0763256836 2.0820622559 2.0870903320 2.0946386719 2.1026657715 2.1089143066 2.1144121094 2.1181169434 2.1204677734 2.1198847656 2.1198103027 2.1205703125 2.1250366211 2.1293920898 2.1305036621 2.1267104492 2.1244597168 2.1264111328 2.1294201660 2.1305239258 2.1321469727 2.1351748047 2.1359094238 2.1334475098 2.1332778320 2.1351833496 2.1367353516 2.1337485352 2.1322133789 2.1335781250 2.1343908691 2.1353081055 2.1389296875 2.1440661621 2.1540300293 2.1632949219 2.1747426758 2.1867968750 2.2008249512 2.2126494141 2.2240437012 2.2384743652 2.2533837891 2.2702585449 2.2800290527 2.2885996094 2.3020524902 2.3134194336 2.3296787109 2.3400070801 2.3502575684 2.3614406738 2.3870585937 0.0000000000 0.0000000000 2.7212587891 2.7552839355 2.8114121094 2.7521232910 2.7396413574 2.7987941895 0.0000000000 0.0000000000 0.0000000000 0.0000000000 0.0000000000 0.0000000000 0.0000000000 0.0000000000 0.0000000000 0.0000000000 0.0000000000 0.0000000000 0.0000000000 0.0000000000 0.0000000000 0.6257085571 0.6336962891 0.6392111206 0.6465372314 0.6537942505 0.6604124146 0.6593280029 0.6454019775 0.6361799927 0.6364819336 0.6532316895 0.6565426636 0.6552474976 0.6542107544 0.6594672852 0.6614634399 0.6598803711 0.6572608643 0.6528475342 0.6570461426 0.6557911377 0.6429956055 0.6447840576 0.6527324219 0.6609013672 0.6598642578 0.6654284668 0.6650912476 0.6666763306 0.6614343872 0.6664309692 0.6682774658 0.6696364136 0.6647717285 0.6589694214 0.6532808228 0.6530641479 0.6577695923 0.6609305420 0.6624456177 0.6682739868 0.6683392944 0.6671901855 0.6615126343 0.6624296875 0.6643212280 0.6713802490 0.6696458130 0.6703896484 0.6666336060 0.6708095703 0.6722316284 0.6826171265 0.6896552124 0.6887722778 0.6742398071 0.5957003174 0.6161835327 0.0000000000 0.0000000000 0.0000000000 0.0000000000 0.0000000000 0.0000000000 0.0000000000 0.0000000000 0.0000000000 0.0000000000 0.0000000000 0.0000000000 0.0000000000 0.0000000000 0.0000000000 0.0000000000 0.0000000000 0.0000000000 0.0000000000 0.0000000000 0.0000000000 0.0000000000 0.0000000000 0.0000000000 0.0000000000 0.0000000000 0.0000000000 0.0000000000 0.0000000000 0.0000000000 0.0000000000 0.0000000000 0.0000000000 0.0000000000 0.0000000000 0.0000000000 0.0000000000 0.0000000000 0.0000000000 0.0000000000 0.0000000000 0.0000000000 0.0000000000 0.0000000000 0.0000000000 0.0000000000 0.0000000000 0.0000000000 0.0000000000 0.0000000000 0.0000000000 0.0000000000 0.0000000000 0.0000000000 0.0000000000 0.0000000000 0.0000000000 0.0000000000 0.0000000000 0.0000000000 0.0000000000 0.0000000000 0.0000000000 0.0000000000 0.0000000000 0.0000000000 0.0000000000 0.0000000000 0.0000000000 0.0000000000 0.0000000000 0.0000000000 0.0000000000 0.0000000000 0.0000000000 0.0000000000 0.0000000000 0.0000000000 0.0000000000 0.0000000000 0.0000000000 0.0000000000 0.0000000000 0.0000000000 0.0000000000 0.0000000000 0.0000000000 0.0000000000 0.0000000000 0.0000000000 0.0000000000 0.0000000000 0.0000000000
2.0564628906 2.0659479980 2.0733937988 2.0808986816 2.0874106445 2.0944523926 2.1045229492 2.1103854980 2.1160571289 2.1182319336 2.1215234375 2.1216850586 2.1201921387 2.1210891113 2.1244741211 2.1278627930 2.1281076660 2.1259758301 2.1277893066 2.1296579590 2.1319599609 2.1324130859 2.1350236816 2.1362028809 2.1373813477 2.1360192871 2.1375581055 2.1371972656 2.1377058105 2.1350180664 2.1348027344 2.1367468262 2.1374633789 2.1396706543 2.1409174805 2.1490415039 2.1537153320 2.1647719727 2.1779948730 2.1921882324 2.2055151367 2.2154782715 2.2272631836 2.2404257812 2.2542790527 2.2671406250 2.2789077148 2.2895747070 2.3043186035 2.3154843750 2.3291269531 2.3377026367 2.3495415039 2.3652104492 2.3935874023 0.0000000000 0.0000000000 2.7168337402 2.7371938477 2.7857937012 2.7881218262 0.0000000000 0.0000000000 0.0000000000 0.0000000000 0.0000000000 0.0000000000 0.0000000000 0.0000000000 0.0000000000 0.0000000000 0.0000000000 0.0000000000 0.0000000000 0.0000000000 0.0000000000 0.0000000000 0.0000000000 0.6304231567 0.6411210327 0.6467420654 0.6462303467 0.6548489380 0.6587511597 0.6601626587 0.6518358154 0.6472218628 0.6489891357 0.6522258301 0.6542977295 0.6581008911 0.6582873535 0.6593583984 0.6563328857 0.6559789429 0.6545242920 0.6559669800 0.6595422363 0.6618463745 0.6483231201 0.6492847900 0.6511282959 0.6606622925 0.6627043457 0.6690192261 0.6671680908 0.6666492310 0.6652947998 0.6694846802 0.6719610596 0.6686462402 0.6673511353 0.6604347534 0.6555508423 0.6446740723 0.6494662476 0.6541307373 0.6558975830 0.6610216675 0.6630656128 0.6636499634 0.6605777588 0.6600415649 0.6631336670 0.6669353027 0.6662919312 0.6687506104 0.6699666138 0.6740281982 0.6766589355 0.6837438965 0.6893341064 0.6871981201 0.6665532227 0.6244585571 0.6362307129 0.0000000000 0.0000000000 0.0000000000 0.0000000000 0.0000000000 0.0000000000 0.0000000000 0.0000000000 0.0000000000 0.0000000000 0.0000000000 0.0000000000 0.0000000000 0.0000000000 0.0000000000 0.0000000000 0.0000000000 0.0000000000 0.0000000000 0.0000000000 0.0000000000 0.0000000000 0.0000000000 0.0000000000 0.0000000000 0.0000000000 0.0000000000 0.0000000000 0.0000000000 0.0000000000 0.0000000000 0.0000000000 0.0000000000 0.0000000000 0.0000000000 0.0000000000 0.0000000000 0.0000000000 0.0000000000 0.0000000000 0.0000000000 0.0000000000 0.0000000000 0.0000000000 0.0000000000 0.0000000000 0.0000000000 0.0000000000 0.0000000000 0.0000000000 0.0000000000 0.0000000000 0.0000000000 0.0000000000 0.0000000000 0.0000000000 0.0000000000 0.0000000000 0.0000000000 0.0000000000 0.0000000000 0.0000000000 0.0000000000 0.0000000000 0.0000000000 0.0000000000 0.0000000000 0.0000000000 0.0000000000 0.0000000000 0.0000000000 0.0000000000 0.0000000000 0.0000000000 0.0000000000 0.0000000000 0.0000000000 0.0000000000 0.0000000000 0.0000000000 0.0000000000 0.0000000000 0.0000000000 0.0000000000 0.0000000000 0.0000000000 0.0000000000 0.0000000000 0.0000000000 0.0000000000 0.0000000000 0.0000000000 0.0000000000
2.0557456055 2.0648186035 2.0706362305 2.0771818848 2.0843974609 2.0927658691 2.1024860840 2.1080290527 2.1117421875 2.1161225586 2.1193940430 2.1213698730 2.1203032227 2.1200822754 2.1226938477 2.1244890137 2.1268715820 2.1278190918 2.1298015137 2.1312153320 2.1297761230 2.1285410156 2.1299526367 2.1313542480 2.1316027832 2.1323234863 2.1340849609 2.1348674316 2.1344858398 2.1340690918 2.1369233398 2.1384169922 2.1373710938 2.1372177734 2.1391887207 2.1492380371 2.1553110352 2.1656684570 2.1775158691 2.1935859375 2.2063210449 2.2149926758 2.2276579590 2.2402954102 2.2555947266 2.2651330566 2.2783417969 2.2858786621 2.3015605469 2.3115739746 2.3250581055 2.3350295410 2.3444030762 2.3642895508 2.4008962402 0.0000000000 2.6739738770 2.7190754395 2.7350720215 2.7608847656 0.0000000000 0.0000000000 0.0000000000 0.0000000000 0.0000000000 0.0000000000 0.0000000000 0.0000000000 0.0000000000 0.0000000000 0.0000000000 0.0000000000 0.0000000000 0.0000000000 0.0000000000 0.0000000000 0.0000000000 0.0000000000 0.6320355835 0.6433292847 0.6499376221 0.6489250488 0.6460522461 0.6533373413 0.6569327393 0.6515789185 0.6566140747 0.6583430786 0.6585082397 0.6534039917 0.6571570435 0.6607681274 0.6628626709 0.6603148193 0.6554706421 0.6540702515 0.6540748901 0.6583268433 0.6576890259 0.6577041626 0.6517313232 0.6445663452 0.6504118042 0.6609244385 0.6696134644 0.6676432495 0.6682190552 0.6699375610 0.6737986450 0.6706923828 0.6633973999 0.6635599976 0.6641634521 0.6589622192 0.6444287720 0.6393865356 0.6539346924 0.6582324219 0.6626310425 0.6631376343 0.6663261108 0.6661558228 0.6671237793 0.6669071655 0.6649877930 0.6639508667 0.6671872559 0.6702049561 0.6710098267 0.6686985474 0.6792528076 0.6850004883 0.6841577148 0.6586620483 0.6186640625 0.6355288086 0.0000000000 0.0000000000 0.0000000000 0.0000000000 0.0000000000 0.0000000000 0.0000000000 0.0000000000 0.0000000000 0.0000000000 0.0000000000 0.0000000000 0.0000000000 0.0000000000 0.0000000000 0.0000000000 0.0000000000 0.0000000000 0.0000000000 0.0000000000 0.0000000000 0.0000000000 0.0000000000 0.0000000000 0.0000000000 0.0000000000 0.0000000000 0.0000000000 0.0000000000 0.0000000000 0.0000000000 0.0000000000 0.0000000000 0.0000000000 0.0000000000 0.0000000000 0.0000000000 0.0000000000 0.0000000000 0.0000000000 0.0000000000 0.0000000000 0.0000000000 0.0000000000 0.0000000000 0.0000000000 0.0000000000 0.0000000000 0.0000000000 0.0000000000 0.0000000000 0.0000000000 0.0000000000 0.0000000000 0.0000000000 0.0000000000 0.0000000000 0.0000000000 0.0000000000 0.0000000000 0.0000000000 0.0000000000 0.0000000000 0.0000000000 0.0000000000 0.0000000000 0.0000000000 0.0000000000 0.0000000000 0.0000000000 0.0000000000 0.0000000000 0.0000000000 0.0000000000 0.0000000000 0.0000000000 0.0000000000 0.0000000000 0.0000000000 0.0000000000 0.0000000000 0.0000000000 0.0000000000 0.0000000000 0.0000000000 0.0000000000 0.0000000000 0.0000000000 0.0000000000 0.0000000000 0.0000000000 0.0000000000 0.0000000000
2.0579731445 2.0654199219 2.0742702637 2.0796652832 2.0884428711 2.0936188965 2.1024086914 2.1055185547 2.1092895508 2.1153649902 2.1192019043 2.1227680664 2.1218850098 2.1233635254 2.1247651367 2.1269721680 2.1313576660 2.1354057617 2.1366684570 2.1350515137 2.1317255859 2.1304777832 2.1318510742 2.1330607910 2.1344108887 2.1347019043 2.1357556152 2.1358876953 2.1353818359 2.1349414062 2.1370231934 2.1382661133 2.1375180664 2.1368867188 2.1384257813 2.1513356934 2.1628593750 2.1762236328 2.1873798828 2.2007653809 2.2128032227 2.2226274414 2.2347065430 2.2457036133 2.2577832031 2.2689694824 2.2827216797 2.2914611816 2.3034072266 2.3130148926 2.3280908203 2.3400651855 2.3507783203 2.3681174316 2.4017807617 0.0000000000 2.6983049316 2.7485292969 2.7878088379 2.7796159668 0.0000000000 2.8016225586 0.0000000000 0.0000000000 0.0000000000 0.0000000000 0.0000000000 0.0000000000 0.0000000000 0.0000000000 0.0000000000 0.0000000000 0.0000000000 0.0000000000 0.0000000000 0.0000000000 0.0000000000 0.0000000000 0.6367875366 0.6489761353 0.6519795532 0.6451436157 0.6465927734 0.6539271851 0.6527149658 0.6516195068 0.6554587402 0.6572766724 0.6608593750 0.6568967285 0.6574909668 0.6640977173 0.6663558960 0.6685667114 0.6568444824 0.6529685059 0.6528739014 0.6574844971 0.6567175293 0.6584135132 0.6562103882 0.6513516235 0.6511919556 0.6604774170 0.6642426758 0.6599381104 0.6633489990 0.6676570435 0.6699433594 0.6667559204 0.6619817505 0.6653054810 0.6693276978 0.6713142090 0.6569667969 0.6483975830 0.6558502808 0.6622668457 0.6607722168 0.6634731445 0.6686818237 0.6722437744 0.6696761475 0.6681060181 0.6639755859 0.6646582642 0.6687974854 0.6724904175 0.6687166748 0.6668632813 0.6781101685 0.6833129883 0.6837772827 0.6687487183 0.6384275513 0.6475462036 0.0000000000 0.0000000000 0.0000000000 0.0000000000 0.0000000000 0.0000000000 0.0000000000 0.0000000000 0.0000000000 0.0000000000 0.0000000000 0.0000000000 0.0000000000 0.0000000000 0.0000000000 0.0000000000 0.0000000000 0.0000000000 0.0000000000 0.0000000000 0.0000000000 0.0000000000 0.0000000000 0.0000000000 0.0000000000 0.0000000000 0.0000000000 0.0000000000 0.0000000000 0.0000000000 0.0000000000 0.0000000000 0.0000000000 0.0000000000 0.0000000000 0.0000000000 0.0000000000 0.0000000000 0.0000000000 0.0000000000 0.0000000000 0.0000000000 0.0000000000 0.0000000000 0.0000000000 0.0000000000 0.0000000000 0.0000000000 0.0000000000 0.0000000000 0.0000000000 0.0000000000 0.0000000000 0.0000000000 0.0000000000 0.0000000000 0.0000000000 0.0000000000 0.0000000000 0.0000000000 0.0000000000 0.0000000000 0.0000000000 0.0000000000 0.0000000000 0.0000000000 0.0000000000 0.0000000000 0.0000000000 0.0000000000 0.0000000000 0.0000000000 0.0000000000 0.0000000000 0.0000000000 0.0000000000 0.0000000000 0.0000000000 0.0000000000 0.0000000000 0.0000000000 0.0000000000 0.0000000000 0.0000000000 0.0000000000 0.0000000000 0.0000000000 0.0000000000 0.0000000000 0.0000000000 0.0000000000 0.0000000000 0.0000000000
2.0605263672 2.0667780762 2.0711726074 2.0790507812 2.0902741699 2.0957536621 2.1025336914 2.1050065918 2.1098190918 2.1140329590 2.1170314941 2.1180166016 2.1207128906 2.1225458984 2.1258400879 2.1256162109 2.1308930664 2.1351977539 2.1339279785 2.1313913574 2.1280070801 2.1306965332 2.1314609375 2.1321394043 2.1311789551 2.1306469727 2.1307241211 2.1313894043 2.1323894043 2.1330981445 2.1347519531 2.1348693848 2.1342819824 2.1333632812 2.1375617676 2.1502761230 2.1655556641 2.1775104980 2.1866301270 2.1967358398 2.2088066406 2.2214450684 2.2356464844 2.2478347168 2.2634458008 2.2708146973 2.2853989258 2.2926032715 2.3057458496 2.3145898437 2.3304345703 2.3422182617 2.3536108398 2.3722629395 2.3999194336 0.0000000000 2.7129462891 2.7552292480 2.7753679199 2.7922438965 2.7963071289 0.0000000000 0.0000000000 0.0000000000 0.0000000000 0.0000000000 0.0000000000 0.0000000000 0.0000000000 0.0000000000 0.0000000000 0.0000000000 0.0000000000 0.0000000000 0.0000000000 0.0000000000 0.0000000000 0.0000000000 0.6350775146 0.6424700928 0.6395778198 0.6389856567 0.6534259033 0.6492356567 0.6536367188 0.6423634033 0.6464324951 0.6507568359 0.6532341309 0.6559131470 0.6531189575 0.6607417603 0.6598255615 0.6624752808 0.6545336304 0.6570459595 0.6556738281 0.6642780151 0.6615006104 0.6605510864 0.6582937622 0.6542708130 0.6525861816 0.6475000610 0.6367719116 0.6461970825 0.6571850586 0.6631209717 0.6658155518 0.6657572021 0.6652022095 0.6652781982 0.6709462280 0.6730567627 0.6674307251 0.6589445801 0.6630680542 0.6685440063 0.6639356689 0.6647449341 0.6696975708 0.6725934448 0.6716058960 0.6681217651 0.6650849609 0.6640246582 0.6677641602 0.6690958862 0.6665679321 0.6632930298 0.6760930176 0.6801731567 0.6803355103 0.6546824951 0.6257187500 0.5550125732 0.0000000000 0.0000000000 0.0000000000 0.0000000000 0.0000000000 0.0000000000 0.0000000000 0.0000000000 0.0000000000 0.0000000000 0.0000000000 0.0000000000 0.0000000000 0.0000000000 0.0000000000 0.0000000000 0.0000000000 0.0000000000 0.0000000000 0.0000000000 0.0000000000 0.0000000000 0.0000000000 0.0000000000 0.0000000000 0.0000000000 0.0000000000 0.0000000000 0.0000000000 0.0000000000 0.0000000000 0.0000000000 0.0000000000 0.0000000000 0.0000000000 0.0000000000 0.0000000000 0.0000000000 0.0000000000 0.0000000000 0.0000000000 0.0000000000 0.0000000000 0.0000000000 0.0000000000 0.0000000000 0.0000000000 0.0000000000 0.0000000000 0.0000000000 0.0000000000 0.0000000000 0.0000000000 0.0000000000 0.0000000000 0.0000000000 0.0000000000 0.0000000000 0.0000000000 0.0000000000 0.0000000000 0.0000000000 0.0000000000 0.0000000000 0.0000000000 0.0000000000 0.0000000000 0.0000000000 0.0000000000 0.0000000000 0.0000000000 0.0000000000 0.0000000000 0.0000000000 0.0000000000 0.0000000000 0.0000000000 0.0000000000 0.0000000000 0.0000000000 0.0000000000 0.0000000000 0.0000000000 0.0000000000 0.0000000000 0.0000000000 0.0000000000 0.0000000000 0.0000000000 0.0000000000 0.0000000000 0.0000000000 0.0000000000
2.0619753418 2.0677817383 2.0704948730 2.0772993164 2.0915822754 2.0990776367 2.1050717773 2.1084831543 2.1142814941 2.1164228516 2.1186086426 2.1160610352 2.1219604492 2.1221931152 2.1255319824 2.1251093750 2.1307480469 2.1355781250 2.1329914551 2.1318791504 2.1293603516 2.1332783203 2.1346396484 2.1352224121 2.1359995117 2.1354995117 2.1360581055 2.1336525879 2.1325419922 2.1327463379 2.1347409668 2.1363381348 2.1372038574 2.1376398926 2.1423623047 2.1489677734 2.1639645996 2.1747861328 2.1870466309 2.1955024414 2.2081584473 2.2206569824 2.2360126953 2.2492954102 2.2593354492 2.2677915039 2.2837199707 2.2962941895 2.3112678223 2.3188154297 2.3353510742 2.3476062012 2.3612321777 2.3745739746 2.4059201660 0.0000000000 2.7043369141 2.7421647949 2.7430849609 2.7530715332 2.7753984375 2.7992805176 2.7870498047 0.0000000000 0.0000000000 0.0000000000 0.0000000000 0.0000000000 0.0000000000 0.0000000000 0.0000000000 0.0000000000 0.0000000000 0.0000000000 0.0000000000 0.0000000000 0.0000000000 0.0000000000 0.6412015381 0.6437308350 0.6418057251 0.6461500854 0.6578921509 0.6622713013 0.6555883789 0.6510014038 0.6481253662 0.6501613770 0.6485035400 0.6488810425 0.6490950317 0.6573622437 0.6523564453 0.6590035400 0.6542534790 0.6612410278 0.6594329224 0.6675207520 0.6653839111 0.6648019409 0.6618693237 0.6625734863 0.6598195801 0.6418394165 0.6288632813 0.6354273071 0.6493963013 0.6582175903 0.6617286377 0.6672963867 0.6656752930 0.6659397583 0.6676867676 0.6705598755 0.6695670776 0.6670695190 0.6645858154 0.6649900513 0.6635197754 0.6637198486 0.6660327148 0.6686657715 0.6688059082 0.6692600098 0.6651331787 0.6649330444 0.6659454346 0.6687685547 0.6677440186 0.6658840942 0.6780227051 0.6813205566 0.6813975220 0.0000000000 0.6253897705 0.6421973877 0.0000000000 0.0000000000 0.0000000000 0.0000000000 0.0000000000 0.0000000000 0.0000000000 0.0000000000 0.0000000000 0.0000000000 0.0000000000 0.0000000000 0.0000000000 0.0000000000 0.0000000000 0.0000000000 0.0000000000 0.0000000000 0.0000000000 0.0000000000 0.0000000000 0.0000000000 0.0000000000 0.0000000000 0.0000000000 0.0000000000 0.0000000000 0.0000000000 0.0000000000 0.0000000000 0.0000000000 0.0000000000 0.0000000000 0.0000000000 0.0000000000 0.0000000000 0.0000000000 0.0000000000 0.0000000000 0.0000000000 0.0000000000 0.0000000000 0.0000000000 0.0000000000 0.0000000000 0.0000000000 0.0000000000 0.0000000000 0.0000000000 0.0000000000 0.0000000000 0.0000000000 0.0000000000 0.0000000000 0.0000000000 0.0000000000 0.0000000000 0.0000000000 0.0000000000 0.0000000000 0.0000000000 0.0000000000 0.0000000000 0.0000000000 0.0000000000 0.0000000000 0.0000000000 0.0000000000 0.0000000000 0.0000000000 0.0000000000 0.0000000000 0.0000000000 0.0000000000 0.0000000000 0.0000000000 0.0000000000 0.0000000000 0.0000000000 0.0000000000 0.0000000000 0.0000000000 0.0000000000 0.0000000000 0.0000000000 0.0000000000 0.0000000000 0.0000000000 0.0000000000 0.0000000000 0.0000000000 0.0000000000 0.0000000000
2.0634431152 2.0655285645 2.0690959473 2.0760480957 2.0890668945 2.0985563965 2.1051437988 2.1078125000 2.1127475586 2.1137165527 2.1163720703 2.1165488281 2.1226899414 2.1220710449 2.1220798340 2.1218974609 2.1273400879 2.1334355469 2.1322658691 2.1327460938 2.1283442383 2.1305219727 2.1318457031 2.1334750977 2.1338293457 2.1325825195 2.1335339355 2.1315417480 2.1286738281 2.1286196289 2.1330297852 2.1369487305 2.1378659668 2.1364157715 2.1415151367 2.1498986816 2.1628745117 2.1696284180 2.1805026855 2.1895532227 2.2006967773 2.2133056641 2.2283645020 2.2473635254 2.2579599609 2.2652878418 2.2788801270 2.2937849121 2.3111442871 2.3204436035 2.3359821777 2.3476386719 2.3583232422 2.3742663574 2.4047944336 0.0000000000 2.7019309082 2.7221936035 2.7399799805 2.7440637207 0.0000000000 2.7850002441 2.7595742188 0.0000000000 0.0000000000 0.0000000000 0.0000000000 0.0000000000 0.0000000000 0.0000000000 0.0000000000 0.0000000000 0.0000000000 0.0000000000 0.0000000000 0.0000000000 0.0000000000 0.6149073486 0.6357677002 0.6355972900 0.6406729736 0.6514421997 0.6675996704 0.6621932373 0.6612092896 0.6542124634 0.6511223145 0.6502229614 0.6433275757 0.6495295410 0.6469250488 0.6590953979 0.6560385132 0.6562120972 0.6525470581 0.6576199341 0.6595855713 0.6635272827 0.6641446533 0.6606058960 0.6650842896 0.6612902832 0.6672507935 0.6549368896 0.6374557495 0.6296192017 0.6389359741 0.6498299561 0.6568405762 0.6519338989 0.6510510864 0.6566342163 0.6606906738 0.6641126709 0.6677705688 0.6700597534 0.6664055786 0.6620805054 0.6601062622 0.6630893555 0.6650263062 0.6657418823 0.6639564819 0.6656967773 0.6611282959 0.6615357666 0.6595942993 0.6619338379 0.6611544800 0.6684401245 0.6773737183 0.6817828369 0.6810501709 0.6664384155 0.6298180542 0.6364812012 0.6484600220 0.6392905884 0.0000000000 0.0000000000 0.0000000000 0.0000000000 0.0000000000 0.0000000000 0.0000000000 0.0000000000 0.0000000000 0.0000000000 0.0000000000 0.0000000000 0.0000000000 0.0000000000 0.0000000000 0.0000000000 0.0000000000 0.0000000000 0.0000000000 0.0000000000 0.0000000000 0.0000000000 0.0000000000 0.0000000000 0.0000000000 0.0000000000 0.0000000000 0.0000000000 0.0000000000 0.0000000000 0.0000000000 0.0000000000 0.0000000000 0.0000000000 0.0000000000 0.0000000000 0.0000000000 0.0000000000 0.0000000000 0.0000000000 0.0000000000 0.0000000000 0.0000000000 0.0000000000 0.0000000000 0.0000000000 0.0000000000 0.0000000000 0.0000000000 0.0000000000 0.0000000000 0.0000000000 0.0000000000 0.0000000000 0.0000000000 0.0000000000 0.0000000000 0.0000000000 0.0000000000 0.0000000000 0.0000000000 0.0000000000 0.0000000000 0.0000000000 0.0000000000 0.0000000000 0.0000000000 0.0000000000 0.0000000000 0.0000000000 0.0000000000 0.0000000000 0.0000000000 0.0000000000 0.0000000000 0.0000000000 0.0000000000 0.0000000000 0.0000000000 0.0000000000 0.0000000000 0.0000000000 0.0000000000 0.0000000000 0.0000000000 0.0000000000 0.0000000000 0.0000000000 0.0000000000 0.0000000000 0.0000000000
2.0620747070 2.0632744141 2.0708110352 2.0800236816 2.0930913086 2.1042236328 2.1095507812 2.1123239746 2.1141250000 2.1159736328 2.1178056641 2.1200144043 2.1255173340 2.1253708496 2.1247458496 2.1269396973 2.1312109375 2.1372092285 2.1349335938 2.1342043457 2.1290053711 2.1298300781 2.1339255371 2.1370339355 2.1394050293 2.1370888672 2.1373286133 2.1354484863 2.1314636230 2.1311560059 2.1346220703 2.1389157715 2.1391718750 2.1372507324 2.1429406738 2.1506372070 2.1621223145 2.1700815430 2.1831386719 2.1939655762 2.2036372070 2.2160429688 2.2302236328 2.2459187012 2.2565769043 2.2661491699 2.2779919434 2.2939038086 2.3098540039 2.3202290039 2.3334946289 2.3480515137 2.3599946289 2.3772216797 2.4129570312 0.0000000000 2.6837082520 2.7174885254 2.7488273926 2.7712065430 2.7641608887 2.7723413086 0.0000000000 0.0000000000 0.0000000000 0.0000000000 0.0000000000 0.0000000000 0.0000000000 0.0000000000 0.0000000000 0.0000000000 0.0000000000 0.0000000000 0.0000000000 0.0000000000 0.0000000000 0.6399495239 0.6390316162 0.6388351440 0.6443232422 0.6522399292 0.6651555786 0.6624045410 0.6640962524 0.6586437988 0.6511968384 0.6478768311 0.6436013184 0.6491598511 0.6509777222 0.6627943115 0.6646564941 0.6646611328 0.6586995850 0.6626788330 0.6662716675 0.6667285156 0.6676254883 0.6643020630 0.6673432007 0.6656085815 0.6749402466 0.6693170776 0.6630444336 0.6370584106 0.6382332764 0.6445344849 0.6447074585 0.6329052124 0.6258602295 0.6368676758 0.6489095459 0.6602213745 0.6687641602 0.6746385498 0.6733010254 0.6670481567 0.6631826782 0.6632554321 0.6672493286 0.6675912476 0.6671412354 0.6679938965 0.6634268188 0.6655395508 0.6612477417 0.6615217285 0.6626528931 0.6712871704 0.6799692993 0.6840626221 0.6829392700 0.6802794800 0.5892168579 0.6194820557 0.6577391968 0.0000000000 0.0000000000 0.0000000000 0.0000000000 0.0000000000 0.0000000000 0.0000000000 0.0000000000 0.0000000000 0.0000000000 0.0000000000 0.0000000000 0.0000000000 0.0000000000 0.0000000000 0.0000000000 0.0000000000 0.0000000000 0.0000000000 0.0000000000 0.0000000000 0.0000000000 0.0000000000 0.0000000000 0.0000000000 0.0000000000 0.0000000000 0.0000000000 0.0000000000 0.0000000000 0.0000000000 0.0000000000 0.0000000000 0.0000000000 0.0000000000 0.0000000000 0.0000000000 0.0000000000 0.0000000000 0.0000000000 0.0000000000 0.0000000000 0.0000000000 0.0000000000 0.0000000000 0.0000000000 0.0000000000 0.0000000000 0.0000000000 0.0000000000 0.0000000000 0.0000000000 0.0000000000 0.0000000000 0.0000000000 0.0000000000 0.0000000000 0.0000000000 0.0000000000 0.0000000000 0.0000000000 0.0000000000 0.0000000000 0.0000000000 0.0000000000 0.0000000000 0.0000000000 0.0000000000 0.0000000000 0.0000000000 0.0000000000 0.0000000000 0.0000000000 0.0000000000 0.0000000000 0.0000000000 0.0000000000 0.0000000000 0.0000000000 0.0000000000 0.0000000000 0.0000000000 0.0000000000 0.0000000000 0.0000000000 0.0000000000 0.0000000000 0.0000000000 0.0000000000 0.0000000000 0.0000000000 0.0000000000
2.0626247559 2.0635141602 2.0698376465 2.0805498047 2.0928178711 2.1050075684 2.1091608887 2.1114589844 2.1142988281 2.1155400391 2.1162363281 2.1201743164 2.1246916504 2.1275722656 2.1251589355 2.1269946289 2.1311293945 2.1343034668 2.1325065918 2.1283979492 2.1276992188 2.1307014160 2.1347114258 2.1352507324 2.1341459961 2.1316999512 2.1313408203 2.1324755859 2.1323364258 2.1332729492 2.1356630859 2.1376286621 2.1359653320 2.1349860840 2.1428688965 2.1534543457 2.1627944336 2.1711660156 2.1833535156 2.1955461426 2.2025415039 2.2164794922 2.2314311523 2.2468276367 2.2600957031 2.2715771484 2.2818969727 2.2944892578 2.3067402344 2.3185739746 2.3301357422 2.3453076172 2.3593813477 2.3799270020 2.4064636230 0.0000000000 2.6769016113 2.7075036621 2.7494951172 2.7729516602 2.7776623535 2.8041452637 0.0000000000 0.0000000000 0.0000000000 0.0000000000 0.0000000000 0.0000000000 0.0000000000 0.0000000000 0.0000000000 0.0000000000 0.0000000000 0.0000000000 0.0000000000 0.0000000000 0.0000000000 0.6335150146 0.6440623169 0.6449792480 0.6485720825 0.6472984009 0.6556937256 0.6539118042 0.6573121338 0.6496220093 0.6488500366 0.6523088379 0.6531853638 0.6536298218 0.6489776001 0.6594415283 0.6639901123 0.6609415283 0.6523047485 0.6572194214 0.6638789673 0.6656077881 0.6644799805 0.6612374268 0.6647438354 0.6629125977 0.6739075928 0.6721398315 0.6695481567 0.6517666626 0.6435297852 0.6364697876 0.6379470825 0.6282418213 0.6257979126 0.6288305054 0.6439155884 0.6555791626 0.6619465332 0.6725061646 0.6734754028 0.6703961792 0.6653405762 0.6641447754 0.6665117188 0.6661692505 0.6634843750 0.6643265381 0.6629933472 0.6643936157 0.6628303833 0.6602846680 0.6590822144 0.6702042236 0.6803948364 0.6849620361 0.6828616333 0.0000000000 0.0000000000 0.6355540161 0.6100104980 0.0000000000 0.0000000000 0.0000000000 0.0000000000 0.0000000000 0.0000000000 0.0000000000 0.0000000000 0.0000000000 0.0000000000 0.0000000000 0.0000000000 0.0000000000 0.0000000000 0.0000000000 0.0000000000 0.0000000000 0.0000000000 0.0000000000 0.0000000000 0.0000000000 0.0000000000 0.0000000000 0.0000000000 0.0000000000 0.0000000000 0.0000000000 0.0000000000 0.0000000000 0.0000000000 0.0000000000 0.0000000000 0.0000000000 0.0000000000 0.0000000000 0.0000000000 0.0000000000 0.0000000000 0.0000000000 0.0000000000 0.0000000000 0.0000000000 0.0000000000 0.0000000000 0.0000000000 0.0000000000 0.0000000000 0.0000000000 0.0000000000 0.0000000000 0.0000000000 0.0000000000 0.0000000000 0.0000000000 0.0000000000 0.0000000000 0.0000000000 0.0000000000 0.0000000000 0.0000000000 0.0000000000 0.0000000000 0.0000000000 0.0000000000 0.0000000000 0.0000000000 0.0000000000 0.0000000000 0.0000000000 0.0000000000 0.0000000000 0.0000000000 0.0000000000 0.0000000000 0.0000000000 0.0000000000 0.0000000000 0.0000000000 0.0000000000 0.0000000000 0.0000000000 0.0000000000 0.0000000000 0.0000000000 0.0000000000 0.0000000000 0.0000000000 0.0000000000 0.0000000000 0.0000000000 0.0000000000 0.0000000000
2.0650781250 2.0718295898 2.0748037109 2.0867478027 2.0983212891 2.1087109375 2.1113247070 2.1147780762 2.1190407715 2.1210090332 2.1204094238 2.1201250000 2.1230559082 2.1253183594 2.1247187500 2.1272626953 2.1316074219 2.1354401855 2.1320656738 2.1293435059 2.1310004883 2.1367622070 2.1379428711 2.1366442871 2.1346599121 2.1347712402 2.1336044922 2.1355981445 2.1364418945 2.1388593750 2.1405368652 2.1387480469 2.1368002930 2.1345664062 2.1435656738 2.1521262207 2.1630222168 2.1732812500 2.1874296875 2.1968449707 2.2051057129 2.2181452637 2.2362116699 2.2468002930 2.2572922363 2.2711311035 2.2862377930 2.2990703125 2.3110507813 2.3238046875 2.3335246582 2.3449460449 2.3585241699 2.3817976074 2.4153410645 0.0000000000 2.6823393555 2.7060258789 2.7294987793 2.7641542969 2.7964733887 0.0000000000 0.0000000000 0.0000000000 0.0000000000 0.0000000000 0.0000000000 0.0000000000 0.0000000000 0.0000000000 0.0000000000 0.0000000000 0.0000000000 0.0000000000 0.0000000000 0.0000000000 0.0000000000 0.0000000000 0.6467785034 0.6520890503 0.6562619629 0.6492489624 0.6518834839 0.6501289062 0.6540708618 0.6503389282 0.6537930908 0.6580399170 0.6591328735 0.6540361328 0.6495300293 0.6582586060 0.6657984619 0.6610371704 0.6527885132 0.6578231201 0.6685136108 0.6701538696 0.6644536133 0.6649451294 0.6665642090 0.6686041260 0.6733730469 0.6708787231 0.6690386353 0.6612860718 0.6516823120 0.6265991821 0.6306971436 0.6310562744 0.6296334839 0.6343294678 0.6446445923 0.6551916504 0.6625293579 0.6732695923 0.6745800781 0.6718234253 0.6686149292 0.6679859619 0.6692559204 0.6662932129 0.6662901001 0.6684022217 0.6665096436 0.6680275879 0.6663051147 0.6642859497 0.6609779053 0.6705722046 0.6841523438 0.6876062012 0.6852808838 0.0000000000 0.6149123535 0.6182408447 0.6309379883 0.0000000000 0.0000000000 0.0000000000 0.0000000000 0.0000000000 0.0000000000 2.7807937012 2.7902861328 2.7902226563 2.7902312012 2.7871357422 2.7900766602 2.7920986328 2.7909174805 2.7868708496 2.7869013672 2.7872487793 2.7871674805 2.7832082520 2.7852001953 2.7896247559 2.7933571777 2.7883583984 2.7890100098 2.7904665527 2.7900163574 2.7826853027 2.7838298340 2.7852292480 2.7893693848 2.7878676758 2.7832011719 2.7831120605 2.7775839844 2.7787106934 2.7791999512 2.7840539551 2.7811308594 2.7760434570 2.7731008301 2.7764880371 2.7777487793 2.7768859863 2.7744335937 2.7800104980 2.7819946289 2.7828720703 2.7748520508 2.7723366699 2.7722167969 2.7730510254 2.7768098145 2.7771979980 2.7782221680 2.7754846191 2.7694401855 2.7656923828 2.7674580078 2.7725600586 2.7690402832 2.7676281738 2.7656149902 2.7727319336 2.7718278809 2.7664208984 2.7653745117 2.7681042480 2.7665483398 2.7625461426 2.7607988281 2.7639208984 2.7664724121 2.7639421387 2.7633139648 2.7715505371 2.7737009277 2.7259780273 0.0000000000 0.0000000000 0.0000000000 0.0000000000 0.0000000000 0.0000000000 0.0000000000 0.0000000000 0.0000000000 0.0000000000 0.0000000000 0.0000000000 0.0000000000 0.0000000000 0.0000000000
2.0613610840 2.0723886719 2.0773222656 2.0881411133 2.0947441406 2.1021569824 2.1066965332 2.1118574219 2.1162763672 2.1199833984 2.1202182617 2.1204172363 2.1211049805 2.1239013672 2.1230256348 2.1222236328 2.1250124512 2.1304426270 2.1308984375 2.1309487305 2.1332600098 2.1383928223 2.1356696777 2.1333833008 2.1304819336 2.1324011230 2.1319978027 2.1322226563 2.1347365723 2.1365734863 2.1394323730 2.1369343262 2.1356389160 2.1345273437 2.1416501465 2.1499843750 2.1638703613 2.1742624512 2.1879006348 2.1953720703 2.2055656738 2.2200144043 2.2363823242 2.2457812500 2.2546513672 2.2665197754 2.2841650391 2.3002490234 2.3118630371 2.3263972168 2.3394082031 2.3490959473 2.3589606934 2.3800485840 2.4277780762 0.0000000000 2.6942790527 2.7097536621 2.7454284668 2.7709282227 2.7477287598 2.7528657227 0.0000000000 0.0000000000 0.0000000000 0.0000000000 0.0000000000 0.0000000000 0.0000000000 0.0000000000 0.0000000000 0.0000000000 0.0000000000 0.0000000000 0.0000000000 0.0000000000 0.0000000000 0.6190858765 0.6329326172 0.6473308105 0.6495469971 0.6520081177 0.6508489380 0.6451892700 0.6453440552 0.6447065430 0.6552966309 0.6562268066 0.6563262329 0.6465689697 0.6479915161 0.6524821777 0.6609533691 0.6570546875 0.6440205078 0.6518300171 0.6629180298 0.6658148804 0.6596035156 0.6578739014 0.6650943604 0.6694232178 0.6689971924 0.6626844482 0.6648738403 0.6641082764 0.6587764282 0.6380239258 0.6272934570 0.6322127075 0.6351428223 0.6374356689 0.6453273315 0.6472890625 0.6585007324 0.6711049805 0.6735547485 0.6696661377 0.6674829102 0.6683480835 0.6715130615 0.6673733521 0.6670281372 0.6690327759 0.6680311890 0.6686789551 0.6679375610 0.6637322998 0.6628340454 0.6733455811 0.6865366211 0.6891065674 0.6863572388 0.0000000000 0.6020001221 0.6105141602 0.6036394043 0.0000000000 0.0000000000 0.0000000000 0.0000000000 0.0000000000 2.7778674316 2.7866728516 2.7923586426 2.7953654785 2.7927153320 2.7922546387 2.7945539551 2.7950556641 2.7946911621 2.7899855957 2.7899816895 2.7866604004 2.7868195801 2.7848840332 2.7893168945 2.7913774414 2.7967504883 2.7959926758 2.7961416016 2.7916291504 2.7896433105 2.7867722168 2.7916010742 2.7907109375 2.7899516602 2.7855080566 2.7835954590 2.7838647461 2.7816516113 2.7820710449 2.7836962891 2.7861318359 2.7842790527 2.7813264160 2.7803808594 2.7844057617 2.7842282715 2.7832424316 2.7819638672 2.7844538574 2.7886640625 2.7881777344 2.7846889648 2.7783295898 2.7760939941 2.7767402344 2.7820903320 2.7834848633 2.7855002441 2.7835173340 2.7780292969 2.7752797852 2.7758393555 2.7808071289 2.7783395996 2.7761601563 2.7763886719 2.7803107910 2.7792761230 2.7802434082 2.7801191406 2.7836135254 2.7822229004 2.7805715332 2.7809946289 2.7813989258 2.7822050781 2.7808320313 2.7816206055 2.7865202637 2.7866347656 2.7773916016 2.7538696289 2.7550217285 2.7365541992 2.7117731934 2.7331108398 2.7510390625 2.7549875488 2.7595212402 2.7527968750 2.7365727539 2.7246638184 2.7165979004 0.0000000000 0.0000000000 0.0000000000
2.0602985840 2.0739467773 2.0815195313 2.0917329102 2.0970705566 2.1019660645 2.1065541992 2.1134187012 2.1151000977 2.1166586914 2.1181059570 2.1203916016 2.1234699707 2.1258041992 2.1244245605 2.1224177246 2.1238259277 2.1298164063 2.1317802734 2.1348010254 2.1362170410 2.1401643066 2.1355080566 2.1356479492 2.1342722168 2.1365783691 2.1368461914 2.1356633301 2.1372006836 2.1371086426 2.1391374512 2.1368195801 2.1377138672 2.1395168457 2.1457517090 2.1504775391 2.1622436523 2.1740698242 2.1869792480 2.1941889648 2.2100891113 2.2239772949 2.2385307617 2.2473225098 2.2555278320 2.2671701660 2.2819196777 2.2997216797 2.3123303223 2.3288510742 2.3424602051 2.3534138184 2.3598400879 2.3826333008 0.0000000000 0.0000000000 2.7078754883 2.7223815918 2.7532165527 2.7661740723 2.7547250977 2.7585256348 2.7610571289 0.0000000000 0.0000000000 0.0000000000 0.0000000000 0.0000000000 0.0000000000 0.0000000000 0.0000000000 0.0000000000 0.0000000000 0.0000000000 0.0000000000 0.0000000000 0.0000000000 0.6304260864 0.6330785522 0.6398519897 0.6467010498 0.6544825439 0.6541875610 0.6457885742 0.6424777832 0.6490866089 0.6577708130 0.6537729492 0.6513374023 0.6495117188 0.6487386475 0.6554462891 0.6558429565 0.6552825317 0.6522022095 0.6530479736 0.6659749756 0.6719468384 0.6673092041 0.6648128662 0.6682073975 0.6712333374 0.6683240967 0.6610156250 0.6604114990 0.6615915527 0.6641074829 0.6564543457 0.6435564575 0.6296682739 0.6262211304 0.6361530762 0.6336649780 0.6485792847 0.6618479614 0.6769497681 0.6759130249 0.6707843018 0.6615286255 0.6621794434 0.6705136108 0.6721636353 0.6733739624 0.6718546143 0.6664118652 0.6684179077 0.6671992798 0.6689595947 0.6682355957 0.6793816528 0.6900792236 0.6921430664 0.6894254150 0.6491536865 0.5874135742 0.5870195313 0.5711624756 0.0000000000 0.0000000000 0.0000000000 0.0000000000 0.0000000000 0.0000000000 2.7872158203 2.7925266113 2.7952709961 2.7991101074 2.7961850586 2.7953532715 2.7945419922 2.7937145996 2.7906909180 2.7903803711 2.7867395020 2.7872416992 2.7843869629 2.7876562500 2.7882961426 2.7932717285 2.7967241211 2.7991955566 2.7925700684 2.7881030273 2.7838779297 2.7903693848 2.7892426758 2.7868315430 2.7829226074 2.7816127930 2.7839091797 2.7848354492 2.7857939453 2.7869038086 2.7892529297 2.7890427246 2.7863315430 2.7840148926 2.7858552246 2.7867780762 2.7856076660 2.7836567383 2.7857531738 2.7881679687 2.7880290527 2.7844423828 2.7774311523 2.7757268066 2.7773708496 2.7829211426 2.7838762207 2.7848229980 2.7828818359 2.7815781250 2.7772495117 2.7789387207 2.7808271484 2.7813857422 2.7820522461 2.7812324219 2.7819990234 2.7808854980 2.7819514160 2.7830153809 2.7870683594 2.7888208008 2.7928442383 2.7939431152 2.7934992676 2.7902580566 2.7879536133 2.7861887207 2.7900971680 2.7910383301 2.7883417969 2.7802976074 2.7787795410 2.7682875977 2.7530598145 2.7528447266 2.7654284668 2.7698535156 2.7740910645 2.7709038086 2.7641013184 2.7551176758 2.7460905762 2.7363835449 2.7147209473 0.0000000000
2.0592495117 2.0733903809 2.0821179199 2.0880151367 2.0917617187 2.0977182617 2.1045175781 2.1124577637 2.1131091309 2.1134645996 2.1156542969 2.1224316406 2.1284304199 2.1304174805 2.1282187500 2.1246020508 2.1252966309 2.1279689941 2.1299423828 2.1328945312 2.1349140625 2.1352238770 2.1323918457 2.1338000488 2.1351618652 2.1362133789 2.1357043457 2.1340388184 2.1328969727 2.1323364258 2.1339909668 2.1342680664 2.1342814941 2.1397099609 2.1496247559 2.1554675293 2.1639890137 2.1725769043 2.1859177246 2.1973952637 2.2127871094 2.2246801758 2.2336354980 2.2440952148 2.2567446289 2.2701132813 2.2849865723 2.2968171387 2.3106728516 2.3240773926 2.3410368652 2.3524985352 2.3642363281 2.3802526855 2.4233779297 0.0000000000 2.7052661133 2.7402275391 2.7585002441 2.7580087891 2.7704624023 2.7705827637 2.7843471680 0.0000000000 0.0000000000 0.0000000000 0.0000000000 0.0000000000 0.0000000000 0.0000000000 0.0000000000 0.0000000000 0.0000000000 0.0000000000 0.0000000000 0.0000000000 0.0000000000 0.6381012573 0.6441686401 0.6458222656 0.6474994507 0.6533107910 0.6510405884 0.6418535767 0.6444326172 0.6542709351 0.6580329590 0.6513265381 0.6452553101 0.6457203369 0.6474736938 0.6446547852 0.6493084106 0.6541900635 0.6492009888 0.6520339355 0.6562297974 0.6641374512 0.6662080078 0.6661975708 0.6679739380 0.6650645142 0.6639157715 0.6591596069 0.6582998047 0.6588055420 0.6649807129 0.6662247314 0.6595384521 0.6416437378 0.6246770020 0.6264720459 0.6329058228 0.6457476807 0.6605499878 0.6754106445 0.6743455200 0.6704255981 0.6567067871 0.6514954224 0.6604589233 0.6691045532 0.6735672607 0.6717988892 0.6664078369 0.6666995239 0.6663670654 0.6698026123 0.6719891357 0.6817536621 0.6900141602 0.6914110107 0.6892734375 0.6610706177 0.5988986816 0.5630717773 0.5427205200 0.0000000000 0.0000000000 0.0000000000 0.0000000000 0.0000000000 2.7777353516 2.7854335938 2.7871887207 2.7929921875 2.7940021973 2.7941943359 2.7893012695 2.7905017090 2.7883046875 2.7862788086 2.7827026367 2.7810300293 2.7822119141 2.7836901855 2.7870810547 2.7847009277 2.7879482422 2.7877666016 2.7920485840 2.7869335938 2.7851362305 2.7802490234 2.7848681641 2.7849816895 2.7844738770 2.7787397461 2.7793837891 2.7787719727 2.7821772461 2.7822883301 2.7836225586 2.7842587891 2.7857346191 2.7852971191 2.7840639648 2.7834963379 2.7829055176 2.7814631348 2.7804062500 2.7816816406 2.7836755371 2.7834980469 2.7832778320 2.7795046387 2.7787336426 2.7781704102 2.7824384766 2.7821701660 2.7829726563 2.7811584473 2.7809289551 2.7773361816 2.7763208008 2.7768432617 2.7807216797 2.7818696289 2.7829072266 2.7815815430 2.7794670410 2.7803439941 2.7813662109 2.7879316406 2.7890488281 2.7938107910 2.7947358398 2.7951794434 2.7919384766 2.7891740723 2.7859645996 2.7849604492 2.7865947266 2.7869106445 2.7851599121 2.7854555664 2.7784099121 2.7708674316 2.7628801270 2.7747270508 2.7787622070 2.7786203613 2.7731599121 2.7663383789 2.7635590820 2.7612634277 2.7570939941 2.7410705566 2.7106987305
2.0638549805 2.0744919434 2.0861428223 2.0920710449 2.0947497559 2.0987810059 2.1035317383 2.1116765137 2.1111960449 2.1085971680 2.1135695801 2.1213093262 2.1305222168 2.1316611328 2.1296354980 2.1281933594 2.1274877930 2.1273269043 2.1270380859 2.1307941895 2.1358776855 2.1374892578 2.1354370117 2.1368945312 2.1372321777 2.1366262207 2.1366318359 2.1363239746 2.1344707031 2.1344123535 2.1340166016 2.1360686035 2.1340881348 2.1399252930 2.1483498535 2.1570568848 2.1660441895 2.1732404785 2.1899987793 2.2011740723 2.2162441406 2.2256237793 2.2359091797 2.2467463379 2.2599711914 2.2732368164 2.2863044434 2.2976396484 2.3099274902 2.3222719727 2.3391445313 2.3538374023 2.3687360840 2.3834182129 2.4107631836 0.0000000000 2.7114895020 2.7254777832 2.7480993652 2.7339694824 0.0000000000 2.8052014160 2.7922766113 0.0000000000 0.0000000000 0.0000000000 0.0000000000 0.0000000000 0.0000000000 0.0000000000 0.0000000000 0.0000000000 0.0000000000 0.0000000000 0.0000000000 0.0000000000 0.0000000000 0.6496148682 0.6620119629 0.6683755493 0.6624967651 0.6604303589 0.6558217773 0.6525895386 0.6558355103 0.6655111694 0.6662395630 0.6590427856 0.6495985107 0.6512385254 0.6445446777 0.6486909180 0.6497516479 0.6558015137 0.6550819702 0.6516060181 0.6504918823 0.6536098633 0.6626190186 0.6705621338 0.6703840332 0.6704674072 0.6684160156 0.6689298096 0.6649920044 0.6621163940 0.6640582886 0.6694738770 0.6699000854 0.6616469727 0.6251966553 0.6291193237 0.6319146729 0.6471809082 0.6580100708 0.6743528442 0.6718173828 0.6718080444 0.6529868774 0.6481224365 0.6535075073 0.6669783936 0.6742163086 0.6729020996 0.6669124756 0.6665932007 0.6665913696 0.6702911377 0.6723937378 0.6859106445 0.6941871948 0.6962003784 0.6934225464 0.6535388794 0.5936892700 0.5529346313 0.5343247070 0.0000000000 0.0000000000 0.0000000000 0.0000000000 0.0000000000 2.7731269531 2.7814443359 2.7840351562 2.7870336914 2.7906579590 2.7868588867 2.7861171875 2.7869982910 2.7876096191 2.7877724609 2.7843876953 2.7830649414 2.7818825684 2.7834074707 2.7855930176 2.7819428711 2.7815671387 2.7812795410 2.7840407715 2.7826396484 2.7847800293 2.7828796387 2.7842299805 2.7821396484 2.7811013184 2.7767680664 2.7762299805 2.7754785156 2.7777817383 2.7785712891 2.7805729980 2.7820603027 2.7839335938 2.7827055664 2.7813188477 2.7811081543 2.7808666992 2.7794143066 2.7771774902 2.7803259277 2.7801850586 2.7802336426 2.7798266602 2.7789226074 2.7796960449 2.7816105957 2.7826762695 2.7819052734 2.7792265625 2.7789897461 2.7787387695 2.7756904297 2.7756948242 2.7769326172 2.7826049805 2.7824807129 2.7833144531 2.7817529297 2.7806645508 2.7812397461 2.7831994629 2.7879113770 2.7896228027 2.7921640625 2.7922321777 2.7914877930 2.7901437988 2.7891027832 2.7856064453 2.7843459473 2.7895141602 2.7912077637 2.7896040039 2.7855498047 2.7821008301 2.7726936035 2.7687473145 2.7774670410 2.7837648926 2.7828549805 2.7749362793 2.7718940430 2.7717292480 2.7707556152 2.7652814941 2.7473640137 2.7212370605
2.0616533203 2.0727158203 2.0831782227 2.0905429687 2.0934467773 2.0984711914 2.1028544922 2.1088491211 2.1092885742 2.1090468750 2.1134326172 2.1205820313 2.1273459473 2.1305126953 2.1296188965 2.1291906738 2.1273227539 2.1266694336 2.1267490234 2.1306552734 2.1345314941 2.1353674316 2.1339846191 2.1353879395 2.1355087891 2.1361645508 2.1337885742 2.1350300293 2.1319741211 2.1324836426 2.1304577637 2.1321843262 2.1305527344 2.1362644043 2.1428085937 2.1552331543 2.1668366699 2.1773715820 2.1931923828 2.2043759766 2.2147988281 2.2235976562 2.2291787109 2.2417751465 2.2544462891 2.2691027832 2.2833803711 2.2916821289 2.3049382324 2.3166918945 2.3377690430 2.3530603027 2.3668745117 2.3810383301 2.4279213867 0.0000000000 2.7086086426 2.7348930664 2.7239440918 0.0000000000 0.0000000000 2.8086572266 2.7884848633 0.0000000000 0.0000000000 0.0000000000 0.0000000000 0.0000000000 0.0000000000 0.0000000000 0.0000000000 0.0000000000 0.0000000000 0.0000000000 0.0000000000 0.0000000000 0.0000000000 0.6580938721 0.6688640747 0.6668927002 0.6661011353 0.6603328857 0.6591549683 0.6568660889 0.6594513550 0.6660083618 0.6658455811 0.6609507446 0.6492017212 0.6461173096 0.6458601074 0.6505680542 0.6499428101 0.6506456909 0.6538016968 0.6547745361 0.6496419678 0.6493225098 0.6555141602 0.6621339722 0.6658737183 0.6671891479 0.6686403809 0.6677308960 0.6660181885 0.6644290161 0.6641292725 0.6717649536 0.6749451294 0.6713151245 0.6490447388 0.6340642700 0.6297188721 0.6384467773 0.6511131592 0.6681326904 0.6693421021 0.6670805054 0.6518931885 0.6503386841 0.6573840332 0.6673870239 0.6703189087 0.6689505615 0.6672390747 0.6665446777 0.6652548218 0.6659562988 0.6703441162 0.6868668823 0.6946784668 0.6963983765 0.6938296509 0.6506389771 0.6275903320 0.5672965088 0.5221279907 0.0000000000 0.0000000000 0.0000000000 0.0000000000 0.0000000000 2.7668417969 2.7764155273 2.7801166992 2.7829643555 2.7847246094 2.7819875488 2.7823674316 2.7840927734 2.7843591309 2.7855742187 2.7818164062 2.7804978027 2.7784318848 2.7811643066 2.7825634766 2.7787360840 2.7787773437 2.7759294434 2.7767338867 2.7779960938 2.7838371582 2.7861408691 2.7840395508 2.7778395996 2.7736833496 2.7694902344 2.7686679687 2.7677617188 2.7702907715 2.7731110840 2.7750344238 2.7758779297 2.7771159668 2.7771982422 2.7763544922 2.7764191895 2.7751091309 2.7746843262 2.7720349121 2.7749387207 2.7744787598 2.7756562500 2.7761027832 2.7758435059 2.7763039551 2.7772851563 2.7765632324 2.7713212891 2.7660422363 2.7636025391 2.7640239258 2.7627561035 2.7657792969 2.7700036621 2.7749003906 2.7753417969 2.7763430176 2.7777221680 2.7788562012 2.7812229004 2.7818710937 2.7842312012 2.7838837891 2.7850847168 2.7851601562 2.7852355957 2.7837443848 2.7832602539 2.7811699219 2.7806169434 2.7866635742 2.7895925293 2.7889592285 2.7838735352 2.7820070801 2.7765356445 2.7736945801 2.7768339844 2.7840351562 2.7831447754 2.7779755859 2.7715927734 2.7706672363 2.7703452148 2.7615026855 2.7396362305 2.7118706055
2.0586606445 2.0684982910 2.0777448730 2.0878222656 2.0944560547 2.1010654297 2.1037414551 2.1084331055 2.1114406738 2.1142111816 2.1177778320 2.1220539551 2.1262792969 2.1310981445 2.1294636230 2.1294257813 2.1247275391 2.1276437988 2.1282702637 2.1348762207 2.1368339844 2.1390512695 2.1380224609 2.1385576172 2.1380041504 2.1366772461 2.1362087402 2.1356376953 2.1354450684 2.1344155273 2.1326650391 2.1330910645 2.1340249023 2.1402348633 2.1451103516 2.1561135254 2.1673625488 2.1783356934 2.1931279297 2.2051496582 2.2154221191 2.2232756348 2.2307788086 2.2419602051 2.2500156250 2.2648601074 2.2787487793 2.2940808105 2.3070234375 2.3209501953 2.3406271973 2.3563935547 2.3697778320 2.3882016602 0.0000000000 0.0000000000 2.7192844238 2.7339245605 2.7219658203 2.7325410156 2.7667690430 0.0000000000 0.0000000000 0.0000000000 0.0000000000 0.0000000000 0.0000000000 0.0000000000 0.0000000000 0.0000000000 0.0000000000 0.0000000000 0.0000000000 0.0000000000 0.0000000000 0.0000000000 0.0000000000 0.6572882080 0.6616028442 0.6649830322 0.6613601074 0.6615561523 0.6607199097 0.6597236938 0.6599465942 0.6634133301 0.6698363647 0.6682953491 0.6592084351 0.6520821533 0.6519978638 0.6579566650 0.6584255981 0.6536550903 0.6573884277 0.6597453003 0.6600127563 0.6569562988 0.6615592041 0.6665037842 0.6661419678 0.6707534790 0.6718072510 0.6733364258 0.6695604858 0.6668449097 0.6658615723 0.6716335449 0.6760733032 0.6755797729 0.6659501953 0.6367150879 0.6307391968 0.6370875854 0.6456547241 0.6656240234 0.6694827881 0.6697081299 0.6580795288 0.6618809204 0.6649094238 0.6700158691 0.6667280273 0.6673668823 0.6678182983 0.6688918457 0.6649287720 0.6659625244 0.6734243164 0.6912383423 0.6954321289 0.6967250366 0.6935456543 0.6506922607 0.6328436279 0.5593555298 0.0000000000 0.0000000000 0.0000000000 0.5144829712 0.0000000000 0.0000000000 2.7685256348 2.7777871094 2.7828247070 2.7818120117 2.7833378906 2.7777797852 2.7840456543 2.7834082031 2.7857321777 2.7839536133 2.7823271484 2.7800798340 2.7780690918 2.7788029785 2.7785485840 2.7763212891 2.7751340332 2.7765930176 2.7752133789 2.7788828125 2.7830742187 2.7876450195 2.7845852051 2.7766867676 2.7642976074 2.7597475586 2.7606364746 2.7622609863 2.7630739746 2.7639750977 2.7683891602 2.7713354492 2.7724846191 2.7691171875 2.7682509766 2.7676142578 2.7695197754 2.7700903320 2.7704753418 2.7720681152 2.7701401367 2.7702705078 2.7686787109 2.7655058594 2.7562065430 0.0000000000 0.0000000000 0.0000000000 0.0000000000 0.0000000000 0.0000000000 0.0000000000 0.0000000000 0.0000000000 2.7585800781 2.7693186035 2.7723911133 2.7746975098 2.7773085937 2.7830073242 2.7842841797 2.7847236328 2.7844182129 2.7859152832 2.7860861816 2.7841093750 2.7811640625 2.7772250977 2.7757565918 2.7775820313 2.7879040527 2.7901914062 2.7915837402 2.7864545898 2.7864396973 2.7786013184 2.7781540527 2.7756520996 2.7837236328 2.7843469238 2.7842380371 2.7794255371 2.7746586914 2.7686286621 2.7572712402 2.7368618164 2.7099089355
2.0598408203 2.0700417480 2.0760913086 2.0801562500 2.0869726562 2.0976157227 2.1049291992 2.1090932617 2.1153254395 2.1188481445 2.1201870117 2.1220354004 2.1237946777 2.1303835449 2.1278620605 2.1290869141 2.1250451660 2.1299689941 2.1323432617 2.1368803711 2.1364409180 2.1361503906 2.1350427246 2.1363444824 2.1367014160 2.1378759766 2.1370646973 2.1353579102 2.1347265625 2.1323732910 2.1311289062 2.1328867188 2.1366647949 2.1423557129 2.1474677734 2.1606933594 2.1691105957 2.1805686035 2.1917263184 2.2071640625 2.2137751465 2.2241618652 2.2316718750 2.2447517090 2.2536315918 2.2658725586 2.2819575195 2.2961557617 2.3139680176 2.3268574219 2.3409145508 2.3531867676 2.3676525879 2.3909831543 0.0000000000 0.0000000000 2.7150375977 2.7249902344 2.7124785156 0.0000000000 2.7311804199 2.7257104492 0.0000000000 0.0000000000 0.0000000000 0.0000000000 0.0000000000 0.0000000000 0.0000000000 0.0000000000 0.0000000000 0.0000000000 0.0000000000 0.0000000000 0.0000000000 0.0000000000 0.0000000000 0.0000000000 0.6549473877 0.6591560669 0.6564616089 0.6581117554 0.6579024658 0.6580823975 0.6606317139 0.6629210815 0.6697164917 0.6698015137 0.6648754883 0.6581181030 0.6625027466 0.6713583984 0.6716668091 0.6590704346 0.6580299683 0.6679593506 0.6701163940 0.6700698853 0.6629020996 0.6680036621 0.6679301147 0.6703943481 0.6678052368 0.6637698975 0.6609157715 0.6639945679 0.6689931641 0.6741697998 0.6763634644 0.6763436279 0.6636148071 0.6390034180 0.6315554810 0.6395364380 0.6435293579 0.6539141235 0.6594862061 0.6639630127 0.6618934937 0.6678582764 0.6687725220 0.6687093506 0.6642029419 0.6649782104 0.6677393188 0.6691558838 0.6657627563 0.6652686157 0.6744161377 0.6887016602 0.6916389160 0.6926102295 0.6886024170 0.6393438110 0.6292272949 0.6481935425 0.6199295044 0.0000000000 0.0000000000 0.0000000000 0.0000000000 2.7450783691 2.7666911621 2.7743945313 2.7792456055 2.7795190430 2.7792558594 2.7772587891 2.7812275391 2.7808251953 2.7796591797 2.7766540527 2.7768637695 2.7766496582 2.7771015625 2.7782160645 2.7769724121 2.7752944336 2.7763564453 2.7768972168 2.7747583008 2.7748422852 2.7763920898 2.7785078125 2.7767368164 2.7721667480 2.7583950195 2.7495629883 2.7495590820 2.7524748535 2.7518615723 2.7506616211 2.7531208496 2.7586137695 2.7611384277 2.7572644043 2.7566572266 2.7556430664 2.7600520020 2.7604355469 2.7621237793 2.7629494629 2.7621293945 2.7578571777 2.7457929688 0.0000000000 0.0000000000 0.7789275513 0.7682299194 0.7668710327 0.7676668701 0.7678386841 0.7684786987 0.7704954834 0.7758482056 0.7905963745 0.0000000000 0.0000000000 2.7555625000 2.7707617188 2.7744155273 2.7803842773 2.7800537109 2.7818808594 2.7797661133 2.7839216309 2.7838654785 2.7844577637 2.7796503906 2.7749045410 2.7698547363 2.7717351074 2.7787014160 2.7837414551 2.7871689453 2.7867792969 2.7860363770 2.7797658691 2.7777751465 2.7721386719 2.7792602539 2.7822502441 2.7875429687 2.7823361816 2.7726765137 2.7659675293 2.7568359375 2.7422512207 2.7149790039
2.0579340820 2.0703779297 2.0773737793 2.0780715332 2.0867851562 2.0967507324 2.1076860352 2.1091513672 2.1135842285 2.1176486816 2.1206113281 2.1229438477 2.1224189453 2.1278017578 2.1254296875 2.1277883301 2.1249360352 2.1288347168 2.1292556152 2.1319660645 2.1330290527 2.1341806641 2.1338703613 2.1333930664 2.1343085938 2.1330234375 2.1336840820 2.1328642578 2.1334626465 2.1330756836 2.1320886230 2.1343369141 2.1369077148 2.1414125977 2.1487048340 2.1626108398 2.1749938965 2.1857021484 2.1939533691 2.2021655273 2.2092182617 2.2227475586 2.2374096680 2.2540200195 2.2634140625 2.2750334473 2.2860000000 2.2999768066 2.3164541016 2.3263198242 2.3398557129 2.3523471680 2.3686511230 2.3956542969 0.0000000000 2.6931672363 2.7183044434 2.7223264160 2.7221401367 2.7625781250 2.7587075195 0.0000000000 0.0000000000 0.0000000000 0.0000000000 0.0000000000 0.0000000000 0.0000000000 0.0000000000 0.0000000000 0.0000000000 0.0000000000 0.0000000000 0.0000000000 0.0000000000 0.0000000000 0.0000000000 0.0000000000 0.6537251587 0.6536395874 0.6513825073 0.6521098633 0.6537791138 0.6552559814 0.6619574585 0.6636326904 0.6657098389 0.6625056152 0.6624631958 0.6585667725 0.6642905273 0.6712669067 0.6694176025 0.6594766235 0.6557523193 0.6607887573 0.6678967896 0.6698261108 0.6677372437 0.6709313965 0.6705444946 0.6732097778 0.6631511230 0.6549918213 0.6550678711 0.6614758911 0.6688494263 0.6681055908 0.6701488037 0.6702781982 0.6631609497 0.6438061523 0.6234612427 0.6272734375 0.6295499878 0.6418010864 0.6466226196 0.6581409302 0.6606104736 0.6657155762 0.6629048462 0.6657222290 0.6659800415 0.6676575317 0.6691623535 0.6678516235 0.6676071167 0.6675280762 0.6759714355 0.6860173950 0.6891846924 0.6900709229 0.6865007935 0.6472914429 0.6364139404 0.6388408203 0.0000000000 0.0000000000 0.0000000000 0.0000000000 0.0000000000 2.7477202148 2.7624379883 2.7716677246 2.7764750977 2.7756208496 2.7753681641 2.7753527832 2.7778742676 2.7747399902 2.7716022949 2.7708076172 2.7730437012 2.7732124023 2.7743879395 2.7743352051 2.7739416504 2.7731264648 2.7755920410 2.7754543457 2.7741113281 2.7699243164 2.7698698730 2.7698640137 2.7693491211 2.7650888672 2.7465053711 2.7301098633 2.7256420898 2.7240209961 2.7182451172 2.7136347656 2.7183740234 2.7130041504 2.7026638184 2.7290764160 2.7280205078 2.7308742676 2.7375236816 2.7374982910 2.7457136230 2.7483608398 2.7394001465 0.0000000000 0.0000000000 0.7681640625 0.7594970703 0.7548488770 0.7528249512 0.7523436890 0.7535468750 0.7544111328 0.7558196411 0.7588076782 0.7625079956 0.7662145996 0.7703790894 0.7840987549 0.0000000000 2.7452578125 2.7639829102 2.7763593750 2.7777360840 2.7802109375 2.7773547363 2.7809182129 2.7800920410 2.7800498047 2.7780175781 2.7749353027 2.7702089844 2.7678674316 2.7711528320 2.7762639160 2.7818818359 2.7834804688 2.7815925293 2.7750998535 2.7740041504 2.7728806152 2.7781105957 2.7794680176 2.7837526855 2.7803989258 2.7718867188 2.7649245605 2.7591535645 2.7476630859 2.7242326660
2.0625068359 2.0717128906 2.0813530273 2.0801225586 2.0867858887 2.0930266113 2.1035747070 2.1068657227 2.1115412598 2.1141701660 2.1191657715 2.1218728027 2.1214414063 2.1260512695 2.1273747559 2.1282043457 2.1265180664 2.1273005371 2.1294741211 2.1313830566 2.1323066406 2.1316577148 2.1281296387 2.1292558594 2.1298620605 2.1305463867 2.1317543945 2.1344609375 2.1344643555 2.1343969727 2.1315739746 2.1358637695 2.1375327148 2.1425820312 2.1489035645 2.1612138672 2.1743713379 2.1874765625 2.1943549805 2.2027961426 2.2105454102 2.2241794434 2.2369919434 2.2492863770 2.2642163086 2.2749621582 2.2844755859 2.2944904785 2.3075603027 2.3213339844 2.3340805664 2.3509582520 2.3675776367 2.3925532227 0.0000000000 2.6901369629 2.7156188965 2.7196911621 2.7564287109 2.8095253906 2.7895996094 0.0000000000 0.0000000000 0.0000000000 0.0000000000 0.0000000000 0.0000000000 0.0000000000 0.0000000000 0.0000000000 0.0000000000 0.0000000000 0.0000000000 0.0000000000 0.0000000000 0.0000000000 0.0000000000 0.6550574341 0.6600145264 0.6563484497 0.6576018066 0.6534099121 0.6537399902 0.6524932861 0.6598976440 0.6605209961 0.6576160889 0.6550921021 0.6490294800 0.6540181885 0.6582233276 0.6630303345 0.6634585571 0.6591787720 0.6587659912 0.6643121948 0.6673560181 0.6698333130 0.6659262085 0.6643072510 0.6633353882 0.6645239258 0.6598291016 0.6514228516 0.6531239014 0.6599470825 0.6671754761 0.6668778687 0.6657843018 0.6660824585 0.6632392578 0.6538562622 0.6275452881 0.6206364136 0.6249248047 0.6377625732 0.6388688354 0.6480446777 0.6516458740 0.6589479980 0.6632353516 0.6660617676 0.6692088013 0.6682759399 0.6709090576 0.6704181519 0.6694436035 0.6659127808 0.6694479370 0.6827595215 0.6877333984 0.6893294678 0.6857266235 0.6519824829 0.6425851440 0.6381726074 0.0000000000 0.0000000000 0.0000000000 0.0000000000 0.0000000000 2.7393679199 2.7536855469 2.7654645996 2.7689179687 2.7716157227 2.7714460449 2.7725139160 2.7730708008 2.7692770996 2.7677248535 2.7667871094 2.7706467285 2.7711791992 2.7745883789 2.7728017578 2.7712263184 2.7688923340 2.7740729980 2.7730678711 2.7726604004 2.7646979980 2.7656408691 2.7625314941 2.7584509277 2.7487431641 2.7291105957 2.7093564453 2.6916933594 2.6888962402 2.6769353027 0.0000000000 0.0000000000 0.0000000000 0.0000000000 0.0000000000 0.0000000000 2.6947651367 2.7031953125 2.7103776855 2.7136835937 0.0000000000 0.0000000000 0.7657917480 0.7548264771 0.7517275391 0.7517366943 0.7519534302 0.7516612549 0.7504053345 0.7513787842 0.7519465942 0.7532708130 0.7552394409 0.7587065430 0.7614675903 0.7631723633 0.7672686768 0.7764965210 0.0000000000 0.0000000000 2.7576042480 2.7676040039 2.7725434570 2.7715158691 2.7764992676 2.7751909180 2.7778745117 2.7749726563 2.7756428223 2.7702180176 2.7684768066 2.7653071289 2.7696909180 2.7757033691 2.7796203613 2.7770319824 2.7704863281 2.7695422363 2.7704389648 2.7749455566 2.7755366211 2.7766159668 2.7742438965 2.7675900879 2.7610629883 2.7525988770 2.7385664062 2.7135175781
2.0649899902 2.0715268555 2.0804748535 2.0853649902 2.0918642578 2.0963820801 2.1042651367 2.1091477051 2.1121938477 2.1155541992 2.1213979492 2.1246389160 2.1253723145 2.1255932617 2.1279414063 2.1281623535 2.1267502441 2.1259431152 2.1289501953 2.1327897949 2.1344707031 2.1331643066 2.1299196777 2.1300771484 2.1286340332 2.1273298340 2.1283071289 2.1341462402 2.1347553711 2.1363278809 2.1349731445 2.1379057617 2.1384748535 2.1422307129 2.1504624023 2.1604282227 2.1737326660 2.1861384277 2.1949272461 2.2018068848 2.2134465332 2.2253752441 2.2359509277 2.2436311035 2.2550471191 2.2693508301 2.2824094238 2.2954484863 2.3098571777 2.3228063965 2.3364804688 2.3500883789 2.3656752930 2.3944062500 0.0000000000 2.6752292480 2.7158466797 2.7338007813 2.7415305176 2.8105668945 2.8403386230 2.8311667480 2.8414533691 0.0000000000 0.0000000000 0.0000000000 0.0000000000 0.0000000000 0.0000000000 0.0000000000 0.0000000000 0.0000000000 0.0000000000 0.0000000000 0.0000000000 0.0000000000 0.0000000000 0.6517669067 0.6601240845 0.6604842529 0.6611390381 0.6486368408 0.6462156372 0.6488188477 0.6530308838 0.6536398926 0.6488140869 0.6478793335 0.6500504150 0.6477542725 0.6504128418 0.6511089478 0.6544233398 0.6554968262 0.6569686890 0.6572139893 0.6620200195 0.6614064941 0.6645999146 0.6621874390 0.6640282593 0.6590190430 0.6564279785 0.6535939331 0.6596291504 0.6604505005 0.6642196655 0.6605325928 0.6606027832 0.6616983643 0.6631685181 0.6606882935 0.6463695679 0.6245615845 0.6242298584 0.6318180542 0.6403021240 0.6409513550 0.6449866943 0.6494400635 0.6558848877 0.6588527832 0.6636649170 0.6671850586 0.6714257202 0.6718895874 0.6678457642 0.6639409790 0.6676087036 0.6830938721 0.6867890015 0.6879777832 0.6815219727 0.6552814941 0.6462711792 0.6303135376 0.0000000000 0.0000000000 0.0000000000 0.0000000000 0.0000000000 2.7313623047 2.7486887207 2.7624018555 2.7668979492 2.7679479980 2.7670615234 2.7680385742 2.7688393555 2.7658662109 2.7630415039 2.7634501953 2.7653000488 2.7666799316 2.7684038086 2.7677583008 2.7669748535 2.7636530762 2.7682536621 2.7668269043 2.7692353516 2.7638564453 2.7636262207 2.7572583008 2.7459396973 2.7281044922 2.7010322266 2.6687741699 2.6639799805 2.6559804688 0.0000000000 0.0000000000 0.0000000000 0.0000000000 0.0000000000 0.0000000000 0.0000000000 0.0000000000 0.0000000000 0.0000000000 0.0000000000 0.0000000000 0.7552795410 0.7490111694 0.7479361572 0.7473572998 0.7493306885 0.7489337158 0.7485206299 0.7469237671 0.7480580444 0.7488503418 0.7502737427 0.7520729370 0.7556286621 0.7582211304 0.7590083618 0.7604053955 0.7647598877 0.7734520874 0.7846726685 0.0000000000 2.7562163086 2.7665976563 2.7707036133 2.7730209961 2.7712814941 2.7702270508 2.7682941895 2.7684902344 2.7647929688 2.7620471191 2.7576301270 2.7590046387 2.7671804199 2.7734086914 2.7723049316 2.7661105957 2.7644003906 2.7666147461 2.7712866211 2.7695302734 2.7702680664 2.7671420898 2.7641562500 2.7558315430 2.7424101563 2.7276682129 2.7072175293
2.0693691406 2.0727824707 2.0818623047 2.0883120117 2.0936306152 2.0978659668 2.1053676758 2.1127036133 2.1181079102 2.1188457031 2.1222683105 2.1236457520 2.1255200195 2.1258581543 2.1297805176 2.1312309570 2.1297956543 2.1293332520 2.1316115723 2.1371679688 2.1371586914 2.1388007813 2.1349553223 2.1338801270 2.1317055664 2.1306364746 2.1325715332 2.1369980469 2.1392907715 2.1398879395 2.1387375488 2.1388012695 2.1395690918 2.1431884766 2.1536665039 2.1638181152 2.1751184082 2.1878413086 2.1954836426 2.2051723633 2.2166127930 2.2305283203 2.2388334961 2.2449335937 2.2556791992 2.2679257813 2.2835996094 2.2977197266 2.3113151855 2.3285231934 2.3415974121 2.3562148438 2.3726779785 2.3980964355 0.0000000000 2.6676181641 2.7096755371 2.7287624512 2.7777119141 0.0000000000 2.7673540039 0.0000000000 2.8276677246 0.0000000000 0.0000000000 0.0000000000 0.0000000000 0.0000000000 0.0000000000 0.0000000000 0.0000000000 0.0000000000 0.0000000000 0.0000000000 0.0000000000 0.0000000000 0.0000000000 0.6513547974 0.6610579224 0.6640638428 0.6624337769 0.6550086670 0.6500022583 0.6504648438 0.6525971069 0.6542600708 0.6539929810 0.6570852661 0.6554195557 0.6559795532 0.6537021484 0.6532290649 0.6578844604 0.6578093262 0.6594254761 0.6564240723 0.6588427734 0.6581328125 0.6608526001 0.6609611816 0.6624682617 0.6583544922 0.6581638794 0.6604331665 0.6643088989 0.6631015015 0.6637091675 0.6657873535 0.6635263062 0.6631764526 0.6658439941 0.6699043579 0.6659539185 0.6474619751 0.6348099976 0.6404983521 0.6472363281 0.6408131714 0.6398301392 0.6463700562 0.6510203857 0.6523374023 0.6594978027 0.6659707642 0.6722120361 0.6726419067 0.6678762207 0.6653038940 0.6676607056 0.6852183838 0.6888500977 0.6901229858 0.6856306152 0.6656454468 0.6555274048 0.0000000000 0.0000000000 0.0000000000 0.0000000000 0.0000000000 0.0000000000 2.7335544434 2.7483454590 2.7612302246 2.7650822754 2.7650581055 2.7634843750 2.7649628906 2.7671125488 2.7642766113 2.7635852051 2.7632429199 2.7658081055 2.7669467773 2.7689968262 2.7686032715 2.7653320313 2.7622968750 2.7638525391 2.7621455078 2.7607341309 2.7580410156 2.7556960449 2.7487277832 2.7329931641 2.7163227539 2.6670874023 2.6552851563 2.6385859375 0.0000000000 0.0000000000 0.0000000000 0.0000000000 0.0000000000 0.0000000000 0.0000000000 0.0000000000 0.0000000000 0.0000000000 0.0000000000 0.7279357300 0.7515963135 0.7481311646 0.7460989380 0.7458125610 0.7459307251 0.7469837646 0.7472654419 0.7468948364 0.7467380371 0.7476747437 0.7487416382 0.7497384644 0.7514874268 0.7540746460 0.7577716675 0.7585819092 0.7593757935 0.7609309692 0.7663444214 0.7761614380 0.0000000000 0.0000000000 2.7586218262 2.7664340820 2.7688308105 2.7681364746 2.7684931641 2.7663815918 2.7668974609 2.7641418457 2.7618710937 2.7554436035 2.7519707031 2.7559421387 2.7663791504 2.7698464355 2.7665715332 2.7652844238 2.7643334961 2.7681230469 2.7650131836 2.7661494141 2.7631027832 2.7589616699 2.7497001953 2.7334096680 2.7169392090 2.7032836914
