3.4384084473 3.4380202637 3.4323364258 3.4301694336 3.4249978027 3.4339572754 3.4386645508 3.4430151367 3.4383068848 3.4439921875 3.4535129395 3.4593176270 3.4564428711 3.4584453125 3.4588327637 3.4506914063 3.4379172363 3.4262729492 3.4296062012 3.4398691406 3.4511955566 3.4403908691 3.4327136230 3.4291862793 3.4330334473 3.4296052246 3.4336730957 3.4334074707 3.4466176758 3.4424919434 3.4283395996 3.4209296875 3.4367897949 3.4501364746 3.4460808105 3.4342707520 3.4239924316 3.4270383301 3.4331447754 3.4355859375 3.4419819336 3.4379599609 3.4346728516 3.4295559082 3.4320371094 3.4345090332 3.4303806152 3.4323481445 3.4255605469 3.4213666992 3.4197773437 3.4241525879 3.4245075684 3.4314929199 3.4306928711 3.4270668945 3.4245290527 3.4246845703 3.4291423340 3.4230485840 3.4138249512 3.4195322266 3.4261069336 3.4301269531 3.4216269531 3.4102810059 3.4067087402 3.4009020996 3.4085000000 3.4202653809 3.4199445801 3.4115158691 3.4198549805 3.4238264160 3.4213237305 3.4093271484 3.4087585449 3.4034274902 3.4024670410 3.4004067383 3.4118691406 3.4269812012 3.4239069824 3.4134858398 3.4016401367 3.4052746582 3.4115957031 3.4095227051 3.4083535156 3.4094362793 3.4158542480 3.4149428711 3.4013039551 3.3973452148 3.3969243164 3.4013903809 3.4049218750 3.4067514648 3.4005300293 3.3987646484 3.4018176270 3.4050324707 3.4026284180 3.4045354004 3.4069316406 3.4075739746 3.4080710449 3.3938618164 3.3907136230 3.3907773437 3.3990476074 3.3929506836 3.3949570313 3.3902961426 3.3946599121 3.3905537109 3.3912990723 3.3932541504 3.3966357422 3.3954206543 3.3875056152 3.3781271973 3.3844150391 3.3906640625 3.3860336914 3.3727011719 3.3814965820 3.3924418945 3.3979428711 3.3969003906 3.3927841797 3.3978879395 3.3957690430 3.3935083008 3.3828703613 3.3748012695 3.3758164063 3.3823496094 3.4009001465 3.3995791016 3.3886833496 3.3803886719 3.3780280762 3.3789643555 3.3748947754 3.3774291992 3.3713708496 3.3795961914 3.3843764648 3.3911096191 3.3875285645 3.3865402832 3.3822570801 3.3811850586 3.3785556641 3.3756706543 3.3800266113 3.3833127441 3.3843891602 3.3776213379 3.3743378906 3.3650251465 3.3676860352 3.3657846680 3.3701645508 3.3708754883 3.3737167969 3.3722141113 3.3765163574 3.3733781738 3.3703293457 3.3662395020 3.3661459961 3.3687351074 3.3759035645 3.3767011719 3.3712609863 3.3725024414 3.3612756348 3.3550175781 3.3537746582 3.3690441895 3.3818251953 3.3837150879 3.3727592773 3.3642993164 3.3551018066 3.3642805176 3.3646669922 3.3605056152 3.3569860840 3.3599843750 3.3607897949 3.3627519531 3.3632854004 3.3549760742 3.3530458984 3.3580954590 3.3649287109 3.3623981934 3.3563403320 3.3579501953 3.3568527832 3.3527397461 3.3466013184 3.3505388184 3.3525004883 3.3493598633 3.3519746094 3.3490324707 3.3480114746 3.3414155273 3.3448205566 3.3398764648 3.3364108887 3.3365151367 3.3372507324 3.3416459961 3.3478798828 3.3462338867 3.3404377441 3.3189431152 3.3121489258 3.3215949707 3.3389311523 3.3335983887 3.3374843750 3.3314890137 3.3298156738
3.4589367676 3.4560336914 3.4476557617 3.4446083984 3.4443564453 3.4542214355 3.4652480469 3.4619716797 3.4562763672 3.4540256348 3.4643989258 3.4663747559 3.4719863281 3.4660136719 3.4677629395 3.4590356445 3.4556015625 3.4456687012 3.4418249512 3.4488217773 3.4605690918 3.4601137695 3.4546552734 3.4435051270 3.4449702148 3.4468728027 3.4478798828 3.4505498047 3.4585056152 3.4558510742 3.4434013672 3.4355722656 3.4480446777 3.4622707520 3.4605734863 3.4569765625 3.4460656738 3.4499216309 3.4527849121 3.4621052246 3.4624423828 3.4652678223 3.4572673340 3.4591120605 3.4525153809 3.4543801270 3.4541567383 3.4572019043 3.4498225098 3.4391665039 3.4404145508 3.4388391113 3.4419020996 3.4450063477 3.4406967773 3.4388547363 3.4377448730 3.4428002930 3.4425720215 3.4364567871 3.4338745117 3.4346840820 3.4425322266 3.4412241211 3.4386762695 3.4353063965 3.4296770020 3.4287546387 3.4349387207 3.4446975098 3.4411608887 3.4267812500 3.4280598145 3.4369550781 3.4361147461 3.4258205566 3.4248371582 3.4196457520 3.4247590332 3.4200229492 3.4290612793 3.4352932129 3.4446596680 3.4325366211 3.4260605469 3.4158876953 3.4169057617 3.4169594727 3.4218024902 3.4298347168 3.4424199219 3.4363454590 3.4225505371 3.4119477539 3.4085603027 3.4144887695 3.4220466309 3.4231516113 3.4259409180 3.4273701172 3.4243244629 3.4215515137 3.4168137207 3.4172531738 3.4243186035 3.4296218262 3.4310056152 3.4180952148 3.4154121094 3.4164287109 3.4256486816 3.4193137207 3.4102631836 3.4077492676 3.4090686035 3.4146169434 3.4132863770 3.4109387207 3.4117382812 3.4150886230 3.4066340332 3.4026884766 3.4025278320 3.4119763184 3.4075444336 3.3997966309 3.3972758789 3.4069545898 3.4136918945 3.4197829590 3.4235063477 3.4173420410 3.4158237305 3.4107177734 3.4073649902 3.4012900391 3.4041174316 3.4074887695 3.4156066895 3.4169707031 3.4057929688 3.3973657227 3.3973076172 3.4061687012 3.4023227539 3.3977573242 3.3998820801 3.4082087402 3.4098823242 3.4065434570 3.3972060547 3.4002424316 3.3970324707 3.3954736328 3.3904096680 3.3941542969 3.3983530273 3.3913850098 3.3892062988 3.3876767578 3.3931247559 3.3877082520 3.3832932129 3.3856906738 3.3852905273 3.3901728516 3.3931250000 3.3927165527 3.3913691406 3.3919328613 3.3905163574 3.3873706055 3.3845007324 3.3834370117 3.3882072754 3.3875812988 3.3805712891 3.3813593750 3.3888334961 3.3877475586 3.3840861816 3.3877878418 3.3922919922 3.3899938965 3.3878491211 3.3767111816 3.3807690430 3.3856901855 3.3857597656 3.3780466309 3.3743046875 3.3724826660 3.3833884277 3.3836542969 3.3821333008 3.3758908691 3.3698874512 3.3719255371 3.3748330078 3.3810358887 3.3848449707 3.3870163574 3.3862353516 3.3807028809 3.3720146484 3.3701982422 3.3684328613 3.3641105957 3.3692465820 3.3675266113 3.3684409180 3.3576757813 3.3602409668 3.3588381348 3.3504575195 3.3485327148 3.3470468750 3.3573598633 3.3684255371 3.3686174316 3.3546250000 3.3309020996 3.3319006348 3.3411252441 3.3483518066 3.3470939941 3.3434638672 3.3443247070 3.3374931641
3.4823950195 3.4781142578 3.4640576172 3.4561948242 3.4602692871 3.4766459961 3.4859926758 3.4761071777 3.4666437988 3.4647680664 3.4749780273 3.4745136719 3.4777409668 3.4715983887 3.4740380859 3.4703010254 3.4751208496 3.4667468262 3.4684423828 3.4624418945 3.4769819336 3.4784680176 3.4789609375 3.4770014648 3.4715693359 3.4718786621 3.4723291016 3.4765895996 3.4727307129 3.4633776855 3.4650773926 3.4606499023 3.4698178711 3.4725925293 3.4741496582 3.4727023926 3.4682836914 3.4711708984 3.4797714844 3.4849606934 3.4825136719 3.4839567871 3.4767392578 3.4802187500 3.4686127930 3.4745830078 3.4714768066 3.4743085938 3.4668244629 3.4631250000 3.4552565918 3.4560458984 3.4530412598 3.4551186523 3.4553669434 3.4526127930 3.4499860840 3.4535996094 3.4577548828 3.4557768555 3.4512590332 3.4531408691 3.4525793457 3.4567224121 3.4575827637 3.4569062500 3.4565134277 3.4500615234 3.4546652832 3.4570537109 3.4577211914 3.4463530273 3.4406120605 3.4425385742 3.4487539062 3.4427524414 3.4381682129 3.4368588867 3.4428200684 3.4427797852 3.4439060059 3.4520705566 3.4501184082 3.4512077637 3.4438605957 3.4328293457 3.4296823730 3.4270148926 3.4376525879 3.4472673340 3.4536030273 3.4503752441 3.4406477051 3.4264384766 3.4253940430 3.4301513672 3.4321870117 3.4392145996 3.4450405273 3.4421545410 3.4387614746 3.4278193359 3.4269133301 3.4292255859 3.4388151855 3.4406530762 3.4425964355 3.4359606934 3.4366823730 3.4360278320 3.4406296387 3.4366569824 3.4324790039 3.4299873047 3.4277631836 3.4279870605 3.4178764648 3.4173459473 3.4204125977 3.4194553223 3.4178867188 3.4168383789 3.4198815918 3.4225759277 3.4233405762 3.4243657227 3.4233322754 3.4256079102 3.4298447266 3.4400554199 3.4356020508 3.4329494629 3.4196291504 3.4190212402 3.4143984375 3.4163291016 3.4210922852 3.4219460449 3.4212468262 3.4192592773 3.4151289063 3.4123896484 3.4153837891 3.4207888184 3.4211066895 3.4189890137 3.4178937988 3.4257614746 3.4242138672 3.4172932129 3.4079030762 3.4092143555 3.4024448242 3.3983093262 3.3948781738 3.4061457520 3.4071035156 3.4048605957 3.4009748535 3.4067563477 3.4098210449 3.4086396484 3.4065444336 3.4084418945 3.4071408691 3.4054873047 3.4027978516 3.4040205078 3.4031818848 3.4027670898 3.4020607910 3.3957343750 3.3956054687 3.3968530273 3.3977824707 3.3982089844 3.3952624512 3.4048200684 3.4066594238 3.4077661133 3.4092377930 3.4078586426 3.4070505371 3.4010610352 3.4008913574 3.4000009766 3.3986623535 3.4010568848 3.3967275391 3.3919340820 3.3868830566 3.3907475586 3.3935107422 3.3985622559 3.3948542480 3.3937214355 3.3911269531 3.3894106445 3.3866171875 3.3937292480 3.3954667969 3.3992180176 3.3927543945 3.3914355469 3.3837922363 3.3822873535 3.3860920410 3.3869770508 3.3885473633 3.3858398437 3.3845759277 3.3766062012 3.3800466309 3.3832231445 3.3775212402 3.3669331055 3.3716706543 3.3793132324 3.3840070801 3.3774929199 3.3699333496 3.3582937012 3.3615783691 3.3595715332 3.3619531250 3.3602990723 3.3587324219 3.3512922363 3.3430693359
3.4961203613 3.4991362305 3.4790109863 3.4667092285 3.4802163086 3.4944555664 3.5007302246 3.4908613281 3.4853715820 3.4868276367 3.4922622070 3.4939272461 3.4948427734 3.4897902832 3.4881977539 3.4856154785 3.4890087891 3.4830336914 3.4871406250 3.4857839355 3.4955490723 3.4948693848 3.4980825195 3.4907773438 3.4853974609 3.4896945801 3.4956306152 3.4913852539 3.4859672852 3.4793588867 3.4868471680 3.4915178223 3.4949526367 3.4924370117 3.4882949219 3.4831037598 3.4789499512 3.4883571777 3.4926379395 3.5030952148 3.4966223145 3.4933547363 3.4858073730 3.4884504395 3.4866633301 3.4957680664 3.4904648437 3.4851831055 3.4817197266 3.4794960937 3.4803771973 3.4759406738 3.4717163086 3.4708095703 3.4740832520 3.4758242188 3.4716992187 3.4807548828 3.4795971680 3.4755891113 3.4679416504 3.4670275879 3.4679389648 3.4735620117 3.4741237793 3.4723073730 3.4718408203 3.4708159180 3.4656440430 3.4687741699 3.4697412109 3.4675463867 3.4606198730 3.4561411133 3.4591142578 3.4588254395 3.4614916992 3.4582067871 3.4685620117 3.4673686523 3.4721977539 3.4647475586 3.4666508789 3.4606618652 3.4605874023 3.4622988281 3.4552841797 3.4499675293 3.4588066406 3.4645258789 3.4640114746 3.4593793945 3.4618862305 3.4595622559 3.4543303223 3.4527644043 3.4558964844 3.4558161621 3.4600288086 3.4567998047 3.4524667969 3.4436140137 3.4411589355 3.4487285156 3.4576015625 3.4576220703 3.4547629395 3.4502492676 3.4539841309 3.4548107910 3.4601096191 3.4647604980 3.4588010254 3.4549931641 3.4442312012 3.4390302734 3.4326015625 3.4333708496 3.4365244141 3.4353696289 3.4317744141 3.4362785645 3.4360056152 3.4372141113 3.4410095215 3.4465349121 3.4436738281 3.4411115723 3.4414909668 3.4465058594 3.4464638672 3.4466894531 3.4375061035 3.4327312012 3.4223447266 3.4293178711 3.4378413086 3.4432937012 3.4379150391 3.4328081055 3.4331589355 3.4345598145 3.4368083496 3.4386843262 3.4423657227 3.4379189453 3.4397041016 3.4400454102 3.4445761719 3.4369592285 3.4254599609 3.4286528320 3.4246611328 3.4182846680 3.4102600098 3.4203903809 3.4235209961 3.4261586914 3.4242956543 3.4257702637 3.4262663574 3.4233986816 3.4251364746 3.4274121094 3.4267717285 3.4235520020 3.4176862793 3.4178498535 3.4218801270 3.4226853027 3.4194580078 3.4085637207 3.4132978516 3.4164580078 3.4185126953 3.4151103516 3.4205468750 3.4256030273 3.4237346191 3.4176022949 3.4242600098 3.4233974609 3.4205410156 3.4090124512 3.4114165039 3.4138266602 3.4141989746 3.4089997559 3.4076230469 3.4057416992 3.4049472656 3.4070356445 3.4115412598 3.4118527832 3.4084216309 3.4094863281 3.4114125977 3.4152229004 3.4087080078 3.4065427246 3.4046911621 3.4068735352 3.4052514648 3.4112575684 3.4041948242 3.4016523437 3.4022194824 3.4049143066 3.4092216797 3.4006237793 3.3977480469 3.3906772461 3.3961577148 3.3981398926 3.3973945313 3.3965280762 3.3924968262 3.3908920898 3.3873496094 3.3866420898 3.3891091309 3.3866486816 3.3958127441 3.3950485840 3.3834729004 3.3810161133 3.3789899902 3.3687758789 3.3570942383
3.5048933105 3.5093798828 3.5059016113 3.4989301758 3.4990627441 3.5112746582 3.5125895996 3.5077124023 3.5024575195 3.5031240234 3.5128581543 3.5129687500 3.5090454102 3.5027014160 3.5003234863 3.5027436523 3.5038781738 3.5032102051 3.4987062988 3.4999201660 3.5083979492 3.5185314941 3.5248605957 3.5113828125 3.5047426758 3.5085173340 3.5117675781 3.5158535156 3.5103139648 3.5126606445 3.5106123047 3.5098564453 3.5090017090 3.5070449219 3.5006228027 3.4933515625 3.4900388184 3.5012519531 3.5031520996 3.5075722656 3.5029465332 3.5014375000 3.4990747070 3.5061306152 3.5061782227 3.5062441406 3.5019680176 3.5033803711 3.4972011719 3.4947780762 3.4916970215 3.4946066895 3.4907675781 3.4967944336 3.4935456543 3.4898889160 3.4865197754 3.4891872559 3.4959426270 3.4916508789 3.4817551270 3.4790744629 3.4841740723 3.4902089844 3.4860510254 3.4862023926 3.4845627441 3.4961699219 3.4909250488 3.4813439941 3.4809113770 3.4810920410 3.4825993652 3.4779890137 3.4764045410 3.4760368652 3.4727055664 3.4735705566 3.4738093262 3.4814672852 3.4838964844 3.4815969238 3.4767744141 3.4736621094 3.4733349609 3.4809006348 3.4813876953 3.4711584473 3.4763559570 3.4774982910 3.4784946289 3.4689948730 3.4760942383 3.4813186035 3.4722011719 3.4649094238 3.4653391113 3.4649621582 3.4658850098 3.4648435059 3.4658041992 3.4610302734 3.4658007813 3.4695476074 3.4710683594 3.4615654297 3.4553911133 3.4529882813 3.4622944336 3.4665009766 3.4755197754 3.4783105469 3.4761730957 3.4661997070 3.4556450195 3.4520068359 3.4488779297 3.4530097656 3.4590329590 3.4577663574 3.4543649902 3.4467473145 3.4505122070 3.4537778320 3.4605202637 3.4605668945 3.4587104492 3.4567546387 3.4545305176 3.4580070801 3.4565935059 3.4645605469 3.4556845703 3.4554040527 3.4486452637 3.4509777832 3.4518681641 3.4567150879 3.4536853027 3.4532167969 3.4535024414 3.4531037598 3.4528125000 3.4565974121 3.4577810059 3.4552797852 3.4508562012 3.4491298828 3.4561071777 3.4510881348 3.4447565918 3.4367065430 3.4417966309 3.4402446289 3.4365856934 3.4400280762 3.4436193848 3.4475083008 3.4407895508 3.4430883789 3.4379899902 3.4372927246 3.4415937500 3.4420336914 3.4421557617 3.4368803711 3.4402407227 3.4396274414 3.4369611816 3.4422465820 3.4410744629 3.4283881836 3.4265820313 3.4320644531 3.4309953613 3.4305529785 3.4300839844 3.4365959473 3.4327951660 3.4278898926 3.4308330078 3.4339697266 3.4314130859 3.4221022949 3.4187385254 3.4221347656 3.4235036621 3.4265163574 3.4230551758 3.4228366699 3.4186950684 3.4169868164 3.4199531250 3.4256425781 3.4237316895 3.4268366699 3.4316201172 3.4346005859 3.4299792480 3.4233266602 3.4121525879 3.4168937988 3.4181770020 3.4282128906 3.4288854980 3.4180524902 3.4155585938 3.4161867676 3.4181569824 3.4034519043 3.4001237793 3.4022316895 3.4092810059 3.4080751953 3.4074936523 3.4080695801 3.4093684082 3.3997382812 3.3949685059 3.3920737305 3.3972167969 3.4018244629 3.4134990234 3.4120378418 3.4052089844 3.3977285156 3.4008398438 3.3894028320 3.3864460449
3.5172121582 3.5253784180 3.5214294434 3.5230510254 3.5219406738 3.5281289063 3.5280529785 3.5288684082 3.5199323730 3.5179433594 3.5273874512 3.5304956055 3.5228771973 3.5213134766 3.5202961426 3.5207597656 3.5191728516 3.5123803711 3.5164062500 3.5144411621 3.5249960938 3.5411208496 3.5405380859 3.5312998047 3.5182797852 3.5193806152 3.5234614258 3.5364497070 3.5330646973 3.5277390137 3.5245512695 3.5252805176 3.5233737793 3.5216972656 3.5206142578 3.5178288574 3.5113117676 3.5209770508 3.5186247559 3.5162106934 3.5152272949 3.5182770996 3.5198034668 3.5160625000 3.5228173828 3.5139433594 3.5170566406 3.5149707031 3.5180803223 3.5137114258 3.5090522461 3.5166496582 3.5135458984 3.5143403320 3.5071992188 3.5126401367 3.4999443359 3.5060351563 3.5124077148 3.5157675781 3.5059929199 3.5034084473 3.5065444336 3.5072941895 3.5017331543 3.4990661621 3.5056962891 3.5217258301 3.5145319824 3.5046247559 3.4933698730 3.4936535645 3.4971765137 3.4995732422 3.4998398438 3.4927634277 3.4936279297 3.4960446777 3.4957431641 3.4986206055 3.4948532715 3.4907231445 3.4930048828 3.4935947266 3.4936953125 3.4909763184 3.4940683594 3.4860932617 3.4869003906 3.4978767090 3.4978308105 3.4925773926 3.4962539063 3.5021015625 3.4939760742 3.4851894531 3.4823676758 3.4880620117 3.4918701172 3.4932937012 3.4920468750 3.4911630859 3.4948796387 3.4977539063 3.4934550781 3.4841140137 3.4787565918 3.4818386230 3.4865976563 3.4874260254 3.4893056641 3.4883281250 3.4826533203 3.4766662598 3.4751225586 3.4763486328 3.4800495605 3.4809956055 3.4868239746 3.4917416992 3.4897521973 3.4726071777 3.4686579590 3.4790107422 3.4871298828 3.4848942871 3.4814077148 3.4822875977 3.4803493652 3.4775693359 3.4839523926 3.4852062988 3.4790910645 3.4771577148 3.4763566895 3.4741882324 3.4716267090 3.4737773438 3.4730578613 3.4765646973 3.4770556641 3.4822414551 3.4825864258 3.4795815430 3.4771206055 3.4748395996 3.4743847656 3.4693774414 3.4734038086 3.4715112305 3.4624685059 3.4583894043 3.4661025391 3.4716452637 3.4670437012 3.4708574219 3.4665937500 3.4671518555 3.4591936035 3.4564450684 3.4546613770 3.4581313477 3.4615593262 3.4659960938 3.4624287109 3.4651433105 3.4667490234 3.4615341797 3.4535043945 3.4564575195 3.4641701660 3.4522292480 3.4455751953 3.4461125488 3.4473852539 3.4448298340 3.4439213867 3.4489443359 3.4462358398 3.4491564941 3.4526503906 3.4520163574 3.4436042480 3.4373439941 3.4360883789 3.4385561523 3.4377021484 3.4386032715 3.4413571777 3.4412375488 3.4375336914 3.4316154785 3.4279489746 3.4345483398 3.4378522949 3.4376762695 3.4464228516 3.4533337402 3.4485915527 3.4324619141 3.4290676270 3.4344895020 3.4380195313 3.4438808594 3.4424606934 3.4355014648 3.4330012207 3.4297690430 3.4292944336 3.4147900391 3.4144101563 3.4190668945 3.4236259766 3.4238588867 3.4238461914 3.4270649414 3.4267397461 3.4220285645 3.4078439941 3.4025517578 3.4056889648 3.4145444336 3.4275834961 3.4230297852 3.4185510254 3.4215805664 3.4249621582 3.4219907227 3.4212346191
3.5379067383 3.5433603516 3.5472595215 3.5466381836 3.5424050293 3.5448222656 3.5398645020 3.5419660645 3.5370312500 3.5364843750 3.5341025391 3.5361520996 3.5316201172 3.5326953125 3.5400043945 3.5409089355 3.5386325684 3.5370480957 3.5311499023 3.5293813477 3.5331711426 3.5462502441 3.5502233887 3.5468398437 3.5322229004 3.5307902832 3.5441547852 3.5544975586 3.5487497559 3.5357204590 3.5314807129 3.5385500488 3.5371420898 3.5406279297 3.5418923340 3.5442055664 3.5395361328 3.5403076172 3.5332402344 3.5271284180 3.5324873047 3.5410341797 3.5414404297 3.5313090820 3.5289702148 3.5258481445 3.5295639648 3.5356875000 3.5416323242 3.5366892090 3.5297319336 3.5361232910 3.5293669434 3.5279213867 3.5195673828 3.5297500000 3.5247404785 3.5201120605 3.5214055176 3.5239941406 3.5225646973 3.5182429199 3.5226552734 3.5197675781 3.5137712402 3.5184104004 3.5241328125 3.5348637695 3.5307048340 3.5206032715 3.5109272461 3.5071943359 3.5207578125 3.5244526367 3.5238596191 3.5191506348 3.5109633789 3.5091252441 3.5043605957 3.5083720703 3.5056977539 3.5105705566 3.5191979980 3.5129155273 3.5092988281 3.5104912109 3.5103618164 3.5040180664 3.5073364258 3.5140185547 3.5201948242 3.5164948730 3.5103476563 3.5109487305 3.5069316406 3.4988579102 3.4955800781 3.4957248535 3.5034941406 3.5064514160 3.5077941895 3.5101535645 3.5136330566 3.5135756836 3.5080397949 3.4993171387 3.4973281250 3.5022180176 3.5098994141 3.5055742188 3.5036135254 3.4952548828 3.4928901367 3.4879455566 3.4889274902 3.4887644043 3.4969150391 3.4990065918 3.5023364258 3.5099724121 3.5119074707 3.4960625000 3.4899936523 3.4992343750 3.5117915039 3.5034494629 3.5053515625 3.4987485352 3.4974687500 3.4945627441 3.4979206543 3.4999152832 3.4959226074 3.4984545898 3.4987224121 3.4950034180 3.4871606445 3.4893237305 3.4910114746 3.4874013672 3.4925224609 3.4969824219 3.4997238770 3.4955261230 3.4897561035 3.4899257813 3.4881694336 3.4855495605 3.4859304199 3.4845422363 3.4845187988 3.4800346680 3.4871523438 3.4851716309 3.4882924805 3.4849279785 3.4863156738 3.4796777344 3.4737854004 3.4739282227 3.4714323730 3.4812924805 3.4811188965 3.4821037598 3.4812634277 3.4843332520 3.4838659668 3.4785017090 3.4710219727 3.4703491211 3.4751826172 3.4711655273 3.4656413574 3.4670585938 3.4640246582 3.4590698242 3.4587050781 3.4556823730 3.4568598633 3.4631335449 3.4731909180 3.4734492187 3.4646267090 3.4577700195 3.4582695313 3.4542956543 3.4538005371 3.4503522949 3.4586691895 3.4570151367 3.4575449219 3.4494716797 3.4448459473 3.4470917969 3.4507038574 3.4545861816 3.4593015137 3.4632678223 3.4572111816 3.4393537598 3.4403330078 3.4495419922 3.4516188965 3.4550605469 3.4514028320 3.4503322754 3.4470107422 3.4427761230 3.4404355469 3.4335322266 3.4394333496 3.4393752441 3.4423125000 3.4417353516 3.4411970215 3.4478073730 3.4513842773 3.4455019531 3.4334133301 3.4247338867 3.4234663086 3.4318681641 3.4384270020 3.4296250000 3.4254323730 3.4250336914 3.4392858887 3.4447692871 3.4467939453
3.5624018555 3.5771040039 3.5693806152 3.5649145508 3.5564604492 3.5624514160 3.5576391602 3.5603198242 3.5505559082 3.5570895996 3.5525854492 3.5500900879 3.5460000000 3.5566501465 3.5609238281 3.5613063965 3.5591123047 3.5555041504 3.5572529297 3.5618127441 3.5543569336 3.5555056152 3.5600537109 3.5605241699 3.5511796875 3.5491855469 3.5592014160 3.5635222168 3.5533164063 3.5481616211 3.5490712891 3.5620517578 3.5635168457 3.5627500000 3.5594545898 3.5580334473 3.5568374023 3.5551525879 3.5529289551 3.5480415039 3.5528593750 3.5649038086 3.5671545410 3.5530236816 3.5476345215 3.5392675781 3.5437739258 3.5504267578 3.5563059082 3.5541391602 3.5554309082 3.5575588379 3.5477412109 3.5429570313 3.5369069824 3.5536533203 3.5541599121 3.5482365723 3.5400048828 3.5406726074 3.5400346680 3.5423869629 3.5379331055 3.5355131836 3.5305241699 3.5343884277 3.5358979492 3.5426723633 3.5432065430 3.5481062012 3.5382998047 3.5402380371 3.5495390625 3.5499504395 3.5491074219 3.5352177734 3.5319853516 3.5275720215 3.5307661133 3.5261320801 3.5268798828 3.5292067871 3.5322016602 3.5295192871 3.5223752441 3.5262666016 3.5288093262 3.5234645996 3.5308776855 3.5367272949 3.5353957520 3.5328178711 3.5286037598 3.5249580078 3.5228081055 3.5175158691 3.5133322754 3.5144929199 3.5180883789 3.5265068359 3.5338676758 3.5294270020 3.5325187988 3.5324814453 3.5213332520 3.5164978027 3.5199477539 3.5224509277 3.5243085938 3.5234785156 3.5151743164 3.5114013672 3.5093127441 3.5090139160 3.5114477539 3.5086623535 3.5157968750 3.5186894531 3.5223828125 3.5225983887 3.5233830566 3.5135778809 3.5107622070 3.5195681152 3.5249875488 3.5232873535 3.5169438477 3.5171188965 3.5152133789 3.5113264160 3.5112690430 3.5070131836 3.5108474121 3.5119628906 3.5141745605 3.5125449219 3.5154750977 3.5136166992 3.5117636719 3.5084174805 3.5051291504 3.5066513672 3.5063044434 3.5048818359 3.5039897461 3.5074279785 3.5064201660 3.5077768555 3.4995993652 3.5005712891 3.5010954590 3.5097919922 3.5103112793 3.5075026855 3.4979165039 3.4967507324 3.5004223633 3.5044060059 3.4975817871 3.4913217773 3.4921679688 3.4955322266 3.4987949219 3.5010307617 3.5003750000 3.4992539062 3.4981049805 3.4940820313 3.4923215332 3.4877556152 3.4866289062 3.4883210449 3.4934406738 3.4861665039 3.4788686523 3.4757988281 3.4771250000 3.4807106934 3.4779458008 3.4840874023 3.4930356445 3.4926196289 3.4862941895 3.4800849609 3.4795158691 3.4727143555 3.4741772461 3.4676491699 3.4712226563 3.4767116699 3.4826069336 3.4761518555 3.4710612793 3.4719206543 3.4718273926 3.4723840332 3.4709216309 3.4761389160 3.4702531738 3.4596567383 3.4621047363 3.4683386230 3.4644697266 3.4651667480 3.4668151855 3.4664248047 3.4620488281 3.4603972168 3.4598481445 3.4624096680 3.4650197754 3.4640466309 3.4609936523 3.4623183594 3.4642434082 3.4682155762 3.4636477051 3.4602548828 3.4513818359 3.4496479492 3.4507416992 3.4474445801 3.4457331543 3.4401457520 3.4384902344 3.4393786621 3.4483708496 3.4617443848 3.4719711914
3.5855170898 3.5929309082 3.5881237793 3.5743034668 3.5738627930 3.5809497070 3.5763603516 3.5689448242 3.5665522461 3.5734394531 3.5815290527 3.5742810059 3.5838937988 3.5772700195 3.5810927734 3.5756708984 3.5755175781 3.5737556152 3.5794370117 3.5855759277 3.5793342285 3.5757663574 3.5773510742 3.5793522949 3.5711120605 3.5726120605 3.5765468750 3.5756230469 3.5683164063 3.5629838867 3.5693991699 3.5792617188 3.5775520020 3.5704621582 3.5686279297 3.5726511230 3.5765659180 3.5765766602 3.5746105957 3.5733073730 3.5707932129 3.5763828125 3.5824936523 3.5762795410 3.5583447266 3.5499531250 3.5575690918 3.5661425781 3.5711269531 3.5683972168 3.5706267090 3.5739921875 3.5668044434 3.5583718262 3.5622685547 3.5731076660 3.5757846680 3.5703566895 3.5623649902 3.5573203125 3.5590017090 3.5549335937 3.5497587891 3.5474790039 3.5453471680 3.5492192383 3.5495783691 3.5543576660 3.5592602539 3.5603957520 3.5640112305 3.5663454590 3.5722241211 3.5751074219 3.5692590332 3.5545463867 3.5493654785 3.5464133301 3.5553649902 3.5496484375 3.5491662598 3.5482800293 3.5498935547 3.5448332520 3.5417761230 3.5382114258 3.5396708984 3.5512199707 3.5549226074 3.5530578613 3.5507558594 3.5467504883 3.5438337402 3.5402297363 3.5414704590 3.5382595215 3.5386667480 3.5348115234 3.5377670898 3.5390783691 3.5423227539 3.5420805664 3.5449433594 3.5438654785 3.5382678223 3.5285327148 3.5278522949 3.5339731445 3.5333293457 3.5375664063 3.5352202148 3.5290629883 3.5260930176 3.5273859863 3.5269311523 3.5290798340 3.5311489258 3.5392607422 3.5331315918 3.5311992187 3.5295278320 3.5303237305 3.5359277344 3.5325112305 3.5362783203 3.5284177246 3.5288720703 3.5264353027 3.5304414063 3.5270373535 3.5235144043 3.5212395020 3.5271594238 3.5294768066 3.5285014648 3.5255446777 3.5305532227 3.5340214844 3.5304167480 3.5257773438 3.5242927246 3.5192863770 3.5163261719 3.5161423340 3.5165458984 3.5229367676 3.5193498535 3.5197167969 3.5137360840 3.5238496094 3.5265505371 3.5285937500 3.5284079590 3.5235014648 3.5181435547 3.5147019043 3.5185183105 3.5150632324 3.5126442871 3.5058962402 3.5046496582 3.5029775391 3.5077714844 3.5158098145 3.5164855957 3.5118156738 3.5116816406 3.5112451172 3.5155515137 3.5052685547 3.5032155762 3.5094760742 3.5149582520 3.5132382813 3.5028908691 3.4944104004 3.4968400879 3.4984384766 3.5058222656 3.5060114746 3.5089291992 3.5091127930 3.5099746094 3.4972031250 3.4946096191 3.4929677734 3.5026655273 3.4945705566 3.4932736816 3.4897741699 3.4964694824 3.4950812988 3.4893212891 3.4908828125 3.4916516113 3.4890053711 3.4842524414 3.4858759766 3.4882365723 3.4843010254 3.4843200684 3.4773212891 3.4760927734 3.4774033203 3.4799875488 3.4811215820 3.4764030762 3.4721840820 3.4730202637 3.4738662109 3.4821093750 3.4806584473 3.4786582031 3.4771518555 3.4772910156 3.4777363281 3.4757995605 3.4687915039 3.4603962402 3.4579208984 3.4642675781 3.4613293457 3.4567900391 3.4575158691 3.4574289551 3.4509206543 3.4510827637 3.4635578613 3.4801040039
3.5974897461 3.6063657227 3.6016918945 3.5895856934 3.5936115723 3.5964221191 3.5980783691 3.5932761230 3.5922958984 3.5963935547 3.5954682617 3.6100988770 3.6056486816 3.6036252441 3.5983999023 3.6009677734 3.5966147461 3.6003222656 3.6070322266 3.6168146973 3.6105107422 3.6076430664 3.5869489746 3.5884997559 3.5893212891 3.5939257813 3.5930629883 3.5928698730 3.5865078125 3.5860600586 3.5918813477 3.6013798828 3.5947712402 3.5896120605 3.5970842285 3.6024619141 3.5978237305 3.5922827148 3.5957126465 3.6013266602 3.5918618164 3.5857033691 3.5872805176 3.5907104492 3.5804282227 3.5767900391 3.5776472168 3.5860498047 3.5823466797 3.5854592285 3.5871989746 3.5839050293 3.5766530762 3.5742687988 3.5888571777 3.5930991211 3.5938894043 3.5885717773 3.5840930176 3.5859892578 3.5867255859 3.5818493652 3.5701376953 3.5677607422 3.5722746582 3.5763840332 3.5732109375 3.5727111816 3.5715080566 3.5747153320 3.5775649414 3.5878144531 3.5904589844 3.5959941406 3.5921921387 3.5784033203 3.5682360840 3.5651027832 3.5773212891 3.5759545898 3.5756760254 3.5666735840 3.5672124023 3.5678679199 3.5600805664 3.5577028809 3.5587226563 3.5691064453 3.5688881836 3.5677277832 3.5630634766 3.5579104004 3.5584423828 3.5589362793 3.5659919434 3.5645473633 3.5626306152 3.5608986816 3.5609978027 3.5588696289 3.5585932617 3.5568024902 3.5596701660 3.5616989746 3.5553552246 3.5551433105 3.5514863281 3.5551198730 3.5483684082 3.5529633789 3.5495141602 3.5473395996 3.5454909668 3.5476213379 3.5460124512 3.5479497070 3.5516616211 3.5576652832 3.5598386230 3.5537900391 3.5489472656 3.5482360840 3.5534924316 3.5509450684 3.5479606934 3.5445334473 3.5410368652 3.5463754883 3.5495195313 3.5532834473 3.5493903809 3.5480869141 3.5461582031 3.5449531250 3.5430405273 3.5457934570 3.5479719238 3.5509345703 3.5473566895 3.5459453125 3.5430817871 3.5440837402 3.5383579102 3.5382541504 3.5396159668 3.5483842773 3.5419162598 3.5445017090 3.5385817871 3.5500988770 3.5429394531 3.5471320801 3.5410712891 3.5494626465 3.5477404785 3.5405468750 3.5342343750 3.5337641602 3.5311655273 3.5336904297 3.5328464355 3.5298144531 3.5292568359 3.5374799805 3.5382390137 3.5237333984 3.5258962402 3.5331477051 3.5350754395 3.5266008301 3.5229101563 3.5279829102 3.5328266602 3.5326289063 3.5238044434 3.5186303711 3.5116660156 3.5170166016 3.5234370117 3.5238837891 3.5232824707 3.5203540039 3.5251577148 3.5199760742 3.5199953613 3.5170732422 3.5218400879 3.5180581055 3.5125080566 3.5103342285 3.5121608887 3.5103742676 3.5048242188 3.5089943848 3.5075869141 3.5104985352 3.5064716797 3.5100888672 3.5059467773 3.5095664063 3.5057858887 3.4976843262 3.4897060547 3.4881071777 3.4942744141 3.4990522461 3.5001528320 3.4974311523 3.4929267578 3.4933771973 3.4995407715 3.4948010254 3.4920319824 3.4934741211 3.4915932617 3.4887397461 3.4852143555 3.4825632324 3.4754455566 3.4701359863 3.4727905273 3.4700117187 3.4746276855 3.4807795410 3.4814626465 3.4755439453 3.4682641602 3.4760588379 3.4888298340
3.6160476074 3.6131398926 3.6160046387 3.6039357910 3.6047031250 3.6050190430 3.6128308105 3.6134489746 3.6140290527 3.6094577637 3.6155788574 3.6248593750 3.6246577148 3.6067949219 3.6091608887 3.6111723633 3.6202192383 3.6171330566 3.6322197266 3.6385485840 3.6355561523 3.6168693848 3.6029321289 3.6014755859 3.6091433105 3.6122373047 3.6132031250 3.6200214844 3.6115117188 3.6061718750 3.6094282227 3.6213881836 3.6157521973 3.6179982910 3.6259406738 3.6292285156 3.6119289551 3.6050541992 3.6092641602 3.6202338867 3.6107546387 3.6005578613 3.6014409180 3.6023576660 3.6027377930 3.6049812012 3.5987067871 3.6037978516 3.6127875977 3.6155656738 3.6160888672 3.6034907227 3.5921540527 3.5924548340 3.6043854980 3.6059025879 3.6016477051 3.5912390137 3.5933669434 3.5967136230 3.6036208496 3.6026345215 3.5905981445 3.5905688477 3.5914255371 3.5970117188 3.5940600586 3.5930170898 3.5878457031 3.5834431152 3.5829567871 3.5926777344 3.5974616699 3.6069128418 3.6053908691 3.5999978027 3.5893444824 3.5826306152 3.5937812500 3.5961364746 3.5943088379 3.5848996582 3.5803073730 3.5816723633 3.5781594238 3.5799599609 3.5864516602 3.5853806152 3.5814355469 3.5739580078 3.5748232422 3.5711477051 3.5754848633 3.5780429688 3.5904489746 3.5915520020 3.5870483398 3.5759611816 3.5760622559 3.5760241699 3.5737216797 3.5741501465 3.5729619141 3.5769350586 3.5704968262 3.5714611816 3.5750629883 3.5761894531 3.5756506348 3.5721694336 3.5669416504 3.5663923340 3.5682094727 3.5667839355 3.5643139648 3.5650600586 3.5626755371 3.5676206055 3.5687956543 3.5730056152 3.5701171875 3.5659099121 3.5691962891 3.5647192383 3.5724216309 3.5659284668 3.5633520508 3.5622341309 3.5695751953 3.5751555176 3.5763393555 3.5702905273 3.5641435547 3.5564929199 3.5608310547 3.5607460938 3.5659929199 3.5658410645 3.5658596191 3.5614624023 3.5617521973 3.5613559570 3.5560871582 3.5550617676 3.5593134766 3.5673439941 3.5603164063 3.5590307617 3.5603010254 3.5704423828 3.5670166016 3.5619958496 3.5593979492 3.5627363281 3.5670561523 3.5644033203 3.5606972656 3.5522629395 3.5560268555 3.5525644531 3.5561782227 3.5510107422 3.5515603027 3.5559672852 3.5508129883 3.5404436035 3.5407409668 3.5459965820 3.5479965820 3.5409208984 3.5404748535 3.5449040527 3.5476347656 3.5539409180 3.5479426270 3.5409370117 3.5317163086 3.5273576660 3.5309287109 3.5337502441 3.5317250977 3.5303837891 3.5401047363 3.5425219727 3.5444514160 3.5362390137 3.5362714844 3.5300620117 3.5272272949 3.5290625000 3.5288234863 3.5237854004 3.5193183594 3.5208830566 3.5256306152 3.5238103027 3.5270495605 3.5229846191 3.5216630859 3.5213273926 3.5257636719 3.5136616211 3.5046513672 3.5049033203 3.5092395020 3.5141726074 3.5171660156 3.5116638184 3.5061574707 3.5071152344 3.5158217773 3.5111162109 3.5076789551 3.5046882324 3.5061098633 3.5033762207 3.5013471680 3.5029509277 3.5008122559 3.4976701660 3.4919770508 3.4920603027 3.4939365234 3.4972695313 3.4992375488 3.4971403809 3.5011674805 3.4906191406 3.4866926270
3.6367546387 3.6335373535 3.6360634766 3.6185466309 3.6184682617 3.6166879883 3.6298781738 3.6398059082 3.6385087891 3.6386940918 3.6387565918 3.6490830078 3.6384335937 3.6222805176 3.6211542969 3.6281926270 3.6360400391 3.6423259277 3.6464829102 3.6561818848 3.6481335449 3.6401684570 3.6277597656 3.6354711914 3.6421267090 3.6419157715 3.6415334473 3.6485827637 3.6491481934 3.6371904297 3.6277985840 3.6382102051 3.6432031250 3.6504445801 3.6489262695 3.6438754883 3.6267951660 3.6188325195 3.6351247559 3.6458144531 3.6373774414 3.6296396484 3.6223645020 3.6222509766 3.6268249512 3.6316628418 3.6252399902 3.6313647461 3.6363144531 3.6430131836 3.6349741211 3.6232158203 3.6106520996 3.6049335938 3.6164980469 3.6201445313 3.6151298828 3.6066960449 3.6032629395 3.6112570801 3.6161730957 3.6174680176 3.6173269043 3.6157558594 3.6126149902 3.6150898437 3.6133125000 3.6152587891 3.6116716309 3.6069833984 3.6023610840 3.6035053711 3.6041455078 3.6135236816 3.6183010254 3.6145820312 3.6033676758 3.6012407227 3.6079418945 3.6138835449 3.6102407227 3.6050312500 3.6030693359 3.6047802734 3.5988847656 3.6044387207 3.6063886719 3.6047094727 3.5980009766 3.5891613770 3.5911357422 3.5876794434 3.5941469727 3.5957722168 3.6100656738 3.6158659668 3.6075656738 3.5945695801 3.5920327148 3.5955295410 3.5946457520 3.5965661621 3.5954616699 3.5959367676 3.5866865234 3.5866757812 3.5889106445 3.6020109863 3.6028972168 3.5974853516 3.5927915039 3.5904277344 3.5928962402 3.5910004883 3.5894519043 3.5877517090 3.5841503906 3.5827385254 3.5853698730 3.5894899902 3.5889851074 3.5856582031 3.5831757813 3.5820654297 3.5836572266 3.5847370605 3.5813781738 3.5804355469 3.5865559082 3.5933520508 3.5954018555 3.5902778320 3.5838666992 3.5786113281 3.5796630859 3.5811821289 3.5841911621 3.5841567383 3.5817292480 3.5805344238 3.5832167969 3.5850803223 3.5804038086 3.5788803711 3.5819997559 3.5848981934 3.5809992676 3.5763586426 3.5776533203 3.5894729004 3.5868732910 3.5817092285 3.5781127930 3.5756306152 3.5807873535 3.5827619629 3.5861762695 3.5839875488 3.5835698242 3.5786000977 3.5778688965 3.5751762695 3.5748068848 3.5680046387 3.5629919434 3.5581752930 3.5595019531 3.5604438477 3.5590881348 3.5612543945 3.5617397461 3.5672521973 3.5669467773 3.5738903809 3.5656645508 3.5624741211 3.5518696289 3.5477907715 3.5501801758 3.5518986816 3.5498222656 3.5451945801 3.5574765625 3.5631997070 3.5610351562 3.5501330566 3.5493339844 3.5444558105 3.5437504883 3.5450117188 3.5461774902 3.5430312500 3.5421364746 3.5471945801 3.5485969238 3.5473146973 3.5417509766 3.5421362305 3.5410073242 3.5445632324 3.5447929687 3.5356574707 3.5243994141 3.5211335449 3.5250786133 3.5310046387 3.5329580078 3.5330703125 3.5251394043 3.5290803223 3.5334741211 3.5269296875 3.5228691406 3.5261950684 3.5245512695 3.5184050293 3.5151210937 3.5181245117 3.5266462402 3.5217077637 3.5146416016 3.5061560059 3.5054436035 3.5016196289 3.5098120117 3.5261591797 3.5218791504 3.5105500488 3.5011711426
3.6601906738 3.6553808594 3.6516525879 3.6357868652 3.6328352051 3.6364235840 3.6471477051 3.6554692383 3.6576860352 3.6582485352 3.6640991211 3.6632673340 3.6592744141 3.6540776367 3.6439204102 3.6376857910 3.6499187012 3.6559807129 3.6542285156 3.6544106445 3.6554692383 3.6579951172 3.6585786133 3.6663005371 3.6708039551 3.6663596191 3.6621740723 3.6632233887 3.6619580078 3.6599331055 3.6436547852 3.6478491211 3.6556599121 3.6682575684 3.6600283203 3.6595283203 3.6500126953 3.6519780273 3.6601416016 3.6662187500 3.6618400879 3.6514125977 3.6453540039 3.6410258789 3.6428107910 3.6448627930 3.6456030273 3.6462009277 3.6518059082 3.6568823242 3.6537348633 3.6451005859 3.6331291504 3.6250080566 3.6266950684 3.6330354004 3.6340783691 3.6302360840 3.6264155273 3.6329157715 3.6338642578 3.6343022461 3.6343090820 3.6325117188 3.6269707031 3.6232734375 3.6265185547 3.6325026855 3.6342785645 3.6290971680 3.6249860840 3.6171259766 3.6153574219 3.6248701172 3.6289001465 3.6297697754 3.6217924805 3.6213176270 3.6222019043 3.6265869141 3.6240349121 3.6286081543 3.6196992188 3.6173554688 3.6105170898 3.6152058105 3.6211674805 3.6201291504 3.6189560547 3.6085214844 3.6128764648 3.6066755371 3.6146684570 3.6160922852 3.6261193848 3.6260368652 3.6247145996 3.6119865723 3.6145532227 3.6172612305 3.6173454590 3.6205683594 3.6200109863 3.6163027344 3.6062421875 3.6017670898 3.6072980957 3.6123315430 3.6183991699 3.6139687500 3.6108090820 3.6067382813 3.6068544922 3.6067302246 3.6122133789 3.6140803223 3.6092712402 3.6014475098 3.6001650391 3.6036191406 3.6064289551 3.6076000977 3.6038444824 3.6006589355 3.6009028320 3.6040781250 3.6059565430 3.6024384766 3.6070073242 3.6119140625 3.6128073730 3.6073742676 3.6039462891 3.6000773926 3.5982585449 3.5977753906 3.6000644531 3.6029013672 3.6059184570 3.6014692383 3.5996335449 3.6051123047 3.6053896484 3.5990002441 3.5964050293 3.5958530273 3.5917426758 3.5897900391 3.5955334473 3.6019125977 3.6060607910 3.6032460938 3.5971865234 3.5904333496 3.5903437500 3.5928605957 3.6035495605 3.6007951660 3.5996621094 3.5864548340 3.5859213867 3.5896247559 3.5903000488 3.5806843262 3.5759831543 3.5784916992 3.5803068848 3.5747138672 3.5725969238 3.5799187012 3.5830554199 3.5867670898 3.5811623535 3.5871350098 3.5843984375 3.5802827148 3.5736003418 3.5703623047 3.5734582520 3.5740751953 3.5682636719 3.5656140137 3.5733923340 3.5777438965 3.5760202637 3.5669404297 3.5703422852 3.5669116211 3.5673903809 3.5627465820 3.5650800781 3.5706110840 3.5707727051 3.5639060059 3.5615249023 3.5554941406 3.5564357910 3.5517707520 3.5573310547 3.5593256836 3.5558273926 3.5455356445 3.5375078125 3.5360878906 3.5381201172 3.5496357422 3.5507165527 3.5494946289 3.5443601074 3.5485329590 3.5441560059 3.5417553711 3.5448737793 3.5432485352 3.5451062012 3.5416447754 3.5337878418 3.5393889160 3.5394636230 3.5379025879 3.5323408203 3.5265092773 3.5196140137 3.5172836914 3.5370148926 3.5421542969 3.5369689941 3.5208977051 3.5135322266
3.6823874512 3.6788469238 3.6746179199 3.6649621582 3.6598735352 3.6611977539 3.6709270020 3.6818127441 3.6804880371 3.6814797363 3.6824821777 3.6859555664 3.6910659180 3.6825512695 3.6778884277 3.6668088379 3.6763950195 3.6787856445 3.6677429199 3.6636901855 3.6728940430 3.6840822754 3.6902954102 3.6963784180 3.6919775391 3.6833666992 3.6787133789 3.6765297852 3.6803928223 3.6766250000 3.6639533691 3.6603525391 3.6660295410 3.6761384277 3.6776372070 3.6825078125 3.6741357422 3.6774353027 3.6841340332 3.6860546875 3.6775549316 3.6667731934 3.6669401855 3.6677861328 3.6694414063 3.6721032715 3.6698217773 3.6676184082 3.6630815430 3.6703569336 3.6702985840 3.6699294434 3.6590083008 3.6517741699 3.6494187012 3.6558320313 3.6597724609 3.6561716309 3.6531406250 3.6519255371 3.6484567871 3.6524514160 3.6535397949 3.6566464844 3.6491772461 3.6434006348 3.6428188477 3.6502189941 3.6557990723 3.6556667480 3.6454609375 3.6447004395 3.6427607422 3.6483732910 3.6519030762 3.6535461426 3.6439389648 3.6401928711 3.6354316406 3.6472365723 3.6513349609 3.6499648437 3.6410449219 3.6422937012 3.6368322754 3.6348496094 3.6343596191 3.6403276367 3.6404533691 3.6369709473 3.6369270020 3.6330759277 3.6317434082 3.6335693359 3.6352351074 3.6321479492 3.6270187988 3.6284516602 3.6331442871 3.6414260254 3.6419003906 3.6417678223 3.6408068848 3.6351494141 3.6293120117 3.6273068848 3.6246601563 3.6235515137 3.6222248535 3.6282231445 3.6275913086 3.6280539551 3.6271520996 3.6253090820 3.6271704102 3.6280146484 3.6272189941 3.6206367188 3.6226452637 3.6285017090 3.6293068848 3.6281123047 3.6218735352 3.6184094238 3.6141879883 3.6250595703 3.6213395996 3.6222373047 3.6243134766 3.6245097656 3.6238559570 3.6267019043 3.6231530762 3.6227553711 3.6191264648 3.6197878418 3.6214965820 3.6273935547 3.6277673340 3.6219675293 3.6221596680 3.6274360352 3.6315612793 3.6256484375 3.6160434570 3.6156562500 3.6068215332 3.6067978516 3.6070544434 3.6130507813 3.6154641113 3.6163115234 3.6140187988 3.6091442871 3.6092644043 3.6134162598 3.6187219238 3.6166110840 3.6167966309 3.6136013184 3.6103242188 3.6102497559 3.6096049805 3.6055642090 3.6001281738 3.6028610840 3.6036630859 3.5970073242 3.5860759277 3.5948000488 3.5996833496 3.6047839355 3.5974416504 3.5961469727 3.5962338867 3.5991772461 3.5990375977 3.5887534180 3.5946750488 3.5924262695 3.5910656738 3.5831523438 3.5846254883 3.5878388672 3.5898029785 3.5863991699 3.5855605469 3.5834260254 3.5840766602 3.5782109375 3.5850488281 3.5990236816 3.6043662109 3.5880434570 3.5810222168 3.5813466797 3.5795253906 3.5721647949 3.5779863281 3.5752084961 3.5685166016 3.5595666504 3.5572907715 3.5576000977 3.5662917480 3.5758967285 3.5755698242 3.5756721191 3.5692136230 3.5673261719 3.5603874512 3.5618601074 3.5619140625 3.5619641113 3.5549262695 3.5554877930 3.5562436523 3.5575498047 3.5571337891 3.5543662109 3.5485561523 3.5402944336 3.5382187500 3.5451113281 3.5538171387 3.5569467773 3.5484975586 3.5407534180 3.5392944336
3.6936997070 3.6924804687 3.6978542480 3.6994353027 3.6960996094 3.6892849121 3.7030175781 3.7004997559 3.7007978516 3.6927517090 3.7054216309 3.7107802734 3.7138312988 3.7060490723 3.7012629395 3.6968264160 3.7001418457 3.6958100586 3.6800114746 3.6777753906 3.6939003906 3.7059221191 3.7137783203 3.7086689453 3.7067028809 3.6916923828 3.6913725586 3.6867116699 3.6920915527 3.6876816406 3.6851220703 3.6894638672 3.6825124512 3.6942766113 3.7010227051 3.7064960938 3.6951762695 3.6930388184 3.6955852051 3.6971555176 3.6893330078 3.6844675293 3.6877387695 3.6909465332 3.6915019531 3.6866237793 3.6819072266 3.6811682129 3.6801176758 3.6931240234 3.6956933594 3.6964589844 3.6833386230 3.6749423828 3.6729465332 3.6755415039 3.6784516602 3.6804560547 3.6725197754 3.6726323242 3.6681416016 3.6777656250 3.6783168945 3.6745576172 3.6631516113 3.6564267578 3.6621093750 3.6687158203 3.6784895020 3.6732692871 3.6690690918 3.6689475098 3.6707189941 3.6712343750 3.6676274414 3.6674108887 3.6616071777 3.6596848145 3.6623610840 3.6732392578 3.6770881348 3.6660883789 3.6514475098 3.6567097168 3.6639008789 3.6542072754 3.6530349121 3.6580781250 3.6666311035 3.6626813965 3.6544206543 3.6473132324 3.6466413574 3.6509838867 3.6507241211 3.6412709961 3.6354494629 3.6359868164 3.6479873047 3.6569257813 3.6593168945 3.6558332520 3.6559675293 3.6540214844 3.6527753906 3.6538725586 3.6459606934 3.6409880371 3.6352438965 3.6382849121 3.6385646973 3.6470590820 3.6512490234 3.6495078125 3.6432951660 3.6368747559 3.6372692871 3.6331967773 3.6430698242 3.6484252930 3.6504631348 3.6494765625 3.6399604492 3.6385761719 3.6379475098 3.6401142578 3.6397753906 3.6412541504 3.6410576172 3.6402031250 3.6366674805 3.6401142578 3.6384062500 3.6400732422 3.6339289551 3.6414843750 3.6451772461 3.6519069824 3.6473078613 3.6445112305 3.6410996094 3.6494658203 3.6423889160 3.6367416992 3.6273657227 3.6326459961 3.6248835449 3.6221481934 3.6219741211 3.6252307129 3.6289721680 3.6293962402 3.6305163574 3.6291425781 3.6329750977 3.6369328613 3.6344025879 3.6236191406 3.6226987305 3.6306281738 3.6313125000 3.6214519043 3.6239931641 3.6239033203 3.6235007324 3.6237819824 3.6267070313 3.6216372070 3.6125061035 3.6149663086 3.6198823242 3.6233920898 3.6157150879 3.6129157715 3.6152272949 3.6232607422 3.6233083496 3.6090085449 3.6017912598 3.6015773926 3.6090039062 3.6016462402 3.5984045410 3.5983750000 3.6026755371 3.6036220703 3.6016247559 3.5992456055 3.6031220703 3.5988613281 3.6059624023 3.6186208496 3.6189465332 3.6061333008 3.5974553223 3.6002233887 3.5969169922 3.5916538086 3.5906901855 3.5852634277 3.5839548340 3.5794013672 3.5808083496 3.5815705566 3.5892072754 3.5927211914 3.5929348145 3.5879211426 3.5845515137 3.5799372559 3.5800329590 3.5828569336 3.5863232422 3.5751691895 3.5695727539 3.5657189941 3.5674914551 3.5694350586 3.5714157715 3.5756623535 3.5682038574 3.5586496582 3.5608916016 3.5673522949 3.5686960449 3.5690568848 3.5708825684 3.5730681152 3.5638532715
3.7171479492 3.7203818359 3.7162067871 3.7274619141 3.7261318359 3.7246645508 3.7246992188 3.7298928223 3.7318637695 3.7306352539 3.7427197266 3.7344663086 3.7284545898 3.7231376953 3.7211823730 3.7267055664 3.7322766113 3.7212121582 3.7131542969 3.7124626465 3.7211086426 3.7265898438 3.7267531738 3.7247011719 3.7182082520 3.7082119141 3.7057873535 3.7113366699 3.7131320801 3.7150056152 3.7151967773 3.7159479980 3.7129768066 3.7167285156 3.7205158691 3.7265881348 3.7190749512 3.7136240234 3.7131245117 3.7101416016 3.7107243652 3.7043830566 3.7076008301 3.7113715820 3.7148999023 3.7132312012 3.7023947754 3.7007204590 3.7050966797 3.7151416016 3.7168391113 3.7112026367 3.7000585938 3.6951486816 3.6964262695 3.6969497070 3.6920539551 3.6975246582 3.6915705566 3.6894426270 3.6841193848 3.6944384766 3.6960136719 3.6972092285 3.6859216309 3.6813986816 3.6863540039 3.6909396973 3.6935090332 3.6977946777 3.6928710938 3.6918376465 3.6914812012 3.6931918945 3.6896452637 3.6835678711 3.6803449707 3.6801384277 3.6839799805 3.6933886719 3.6975214844 3.6865036621 3.6757890625 3.6761235352 3.6818366699 3.6742407227 3.6717172852 3.6773679199 3.6866362305 3.6890588379 3.6773068848 3.6718479004 3.6715471191 3.6764160156 3.6720861816 3.6641801758 3.6624489746 3.6615979004 3.6688288574 3.6729916992 3.6736071777 3.6680368652 3.6683420410 3.6687636719 3.6722353516 3.6717485352 3.6638779297 3.6654460449 3.6616855469 3.6646757813 3.6606865234 3.6640908203 3.6709421387 3.6659826660 3.6627326660 3.6557895508 3.6483908691 3.6493867188 3.6613635254 3.6682268066 3.6703544922 3.6708286133 3.6666291504 3.6655485840 3.6588623047 3.6601862793 3.6514887695 3.6559042969 3.6521318359 3.6555153809 3.6502551270 3.6551730957 3.6537448730 3.6582971191 3.6571958008 3.6613830566 3.6667482910 3.6664848633 3.6642048340 3.6547897949 3.6634794922 3.6651494141 3.6636909180 3.6540444336 3.6495456543 3.6530476074 3.6435668945 3.6411528320 3.6432788086 3.6502373047 3.6471669922 3.6436745605 3.6454016113 3.6473920898 3.6530815430 3.6606835937 3.6509392090 3.6391047363 3.6392832031 3.6500053711 3.6487419434 3.6436896973 3.6413317871 3.6463266602 3.6440104980 3.6456650391 3.6450063477 3.6440190430 3.6387785645 3.6398554687 3.6404267578 3.6403422852 3.6358405762 3.6323288574 3.6344418945 3.6390637207 3.6405056152 3.6280979004 3.6213779297 3.6202912598 3.6292827148 3.6278591309 3.6216252441 3.6221213379 3.6226877441 3.6207316895 3.6185534668 3.6196774902 3.6245302734 3.6228596191 3.6221252441 3.6253227539 3.6304235840 3.6249116211 3.6206962891 3.6160480957 3.6167639160 3.6076965332 3.6059023437 3.6035019531 3.6027490234 3.6080390625 3.6079755859 3.6063833008 3.6104055176 3.6110014648 3.6079543457 3.5996611328 3.5990043945 3.5978894043 3.6053369141 3.6080615234 3.6057529297 3.5975195313 3.5909140625 3.5897656250 3.5879370117 3.5873134766 3.5887705078 3.5968864746 3.5867292480 3.5813625488 3.5868527832 3.5989833984 3.5850302734 3.5860473633 3.5893298340 3.5974582520 3.5864370117
3.7499355469 3.7429296875 3.7375661621 3.7367756348 3.7616369629 3.7584790039 3.7561413574 3.7559038086 3.7615314941 3.7552067871 3.7533588867 3.7449804688 3.7373232422 3.7333732910 3.7313730469 3.7426838379 3.7501562500 3.7466379395 3.7418388672 3.7353430176 3.7418239746 3.7377941895 3.7420532227 3.7370068359 3.7363762207 3.7314846191 3.7341435547 3.7300712891 3.7317983398 3.7351862793 3.7339714355 3.7347800293 3.7242121582 3.7291477051 3.7363317871 3.7494143066 3.7462810059 3.7371762695 3.7271696777 3.7258867187 3.7271098633 3.7300100098 3.7296113281 3.7303698730 3.7318647461 3.7271232910 3.7209401855 3.7210761719 3.7287370605 3.7346782227 3.7335329590 3.7262111816 3.7184882812 3.7122575684 3.7127021484 3.7147775879 3.7078686523 3.7106979980 3.7064472656 3.7120461426 3.7056911621 3.7148344727 3.7117561035 3.7128371582 3.7162761230 3.7131582031 3.7155522461 3.7122858887 3.7090180664 3.7114377441 3.7138015137 3.7082341309 3.7032031250 3.7053347168 3.7039992676 3.7008505859 3.6974035645 3.6973283691 3.6963623047 3.7012824707 3.7072177734 3.7057639160 3.7007827148 3.6939152832 3.6986228027 3.6952885742 3.6984545898 3.6985390625 3.7034907227 3.7066198730 3.6993447266 3.6934907227 3.6975895996 3.6994960938 3.6960009766 3.6837971191 3.6854614258 3.6817209473 3.6843845215 3.6818112793 3.6814191895 3.6781005859 3.6821564941 3.6890461426 3.6868869629 3.6838491211 3.6792341309 3.6844565430 3.6877312012 3.6840817871 3.6822753906 3.6847788086 3.6875727539 3.6831979980 3.6827988281 3.6782966309 3.6692785645 3.6709489746 3.6778762207 3.6806259766 3.6811901855 3.6868820801 3.6861406250 3.6883854980 3.6839633789 3.6800437012 3.6715261230 3.6695554199 3.6708249512 3.6813742676 3.6875070801 3.6815104980 3.6793818359 3.6792607422 3.6799255371 3.6814018555 3.6810122070 3.6822229004 3.6741926270 3.6753364258 3.6747287598 3.6801105957 3.6709394531 3.6666804199 3.6638305664 3.6680622559 3.6656005859 3.6659260254 3.6750468750 3.6726586914 3.6674365234 3.6590095215 3.6624206543 3.6709936523 3.6741520996 3.6705710449 3.6612524414 3.6568200684 3.6567375488 3.6644655762 3.6648823242 3.6622106934 3.6638393555 3.6617189941 3.6606252441 3.6607731934 3.6590295410 3.6642866211 3.6618562012 3.6688269043 3.6616352539 3.6583679199 3.6490202637 3.6519445801 3.6516552734 3.6561083984 3.6523769531 3.6473210449 3.6431845703 3.6442905273 3.6494116211 3.6515200195 3.6539519043 3.6465976562 3.6418527832 3.6403876953 3.6379379883 3.6437041016 3.6487526855 3.6448771973 3.6366416016 3.6306684570 3.6350202637 3.6380539551 3.6350808105 3.6343710938 3.6276899414 3.6217011719 3.6251096191 3.6316059570 3.6380761719 3.6390522461 3.6334169922 3.6301015625 3.6294851074 3.6315168457 3.6304892578 3.6249233398 3.6246899414 3.6256203613 3.6333015137 3.6359360352 3.6272937012 3.6157797852 3.6131328125 3.6162177734 3.6163657227 3.6039272461 3.6016218262 3.6083308105 3.6109277344 3.6097214355 3.6184602051 3.6231271973 3.6076455078 3.5994384766 3.5945920410 3.5995400391 3.5946503906
3.7682426758 3.7674555664 3.7574584961 3.7672353516 3.7905910645 3.7840209961 3.7788315430 3.7814575195 3.7810971680 3.7758046875 3.7653186035 3.7603867187 3.7489436035 3.7571845703 3.7528762207 3.7606044922 3.7693151855 3.7789050293 3.7632307129 3.7598598633 3.7622172852 3.7669165039 3.7660903320 3.7599755859 3.7547619629 3.7594304199 3.7572612305 3.7628959961 3.7558879395 3.7616210938 3.7555051270 3.7508535156 3.7394438477 3.7449411621 3.7639541016 3.7784462891 3.7706511230 3.7571245117 3.7485976563 3.7452209473 3.7504318848 3.7564494629 3.7579528809 3.7585603027 3.7551481934 3.7484775391 3.7449101563 3.7464187012 3.7521010742 3.7482749023 3.7497548828 3.7467963867 3.7441020508 3.7354936523 3.7323618164 3.7337211914 3.7272368164 3.7296665039 3.7282019043 3.7354985352 3.7321611328 3.7359689941 3.7342446289 3.7411999512 3.7446538086 3.7490917969 3.7443107910 3.7378715820 3.7342792969 3.7285080566 3.7337363281 3.7261945801 3.7213041992 3.7191511230 3.7254431152 3.7222636719 3.7237099609 3.7147175293 3.7072182617 3.7066628418 3.7138122559 3.7201232910 3.7218898926 3.7157902832 3.7146171875 3.7206640625 3.7226574707 3.7225517578 3.7253129883 3.7239855957 3.7220273438 3.7186562500 3.7213659668 3.7215913086 3.7166777344 3.7043713379 3.7045097656 3.6984509277 3.7041269531 3.7024892578 3.7015266113 3.6971965332 3.7000109863 3.7015925293 3.7046967773 3.7015070801 3.7005583496 3.7058505859 3.7064882812 3.7067722168 3.7067753906 3.7069914551 3.7062871094 3.7046083984 3.7100529785 3.7065136719 3.7030151367 3.7050039062 3.7064130859 3.7096511230 3.7028417969 3.7035856934 3.7028530273 3.7076481934 3.7040671387 3.7045090332 3.6940270996 3.6888703613 3.6910219727 3.7038159180 3.7079030762 3.7062058105 3.7039023438 3.7063039551 3.7056672363 3.7004328613 3.7017316895 3.6975266113 3.6937053223 3.6903850098 3.6904013672 3.6932126465 3.6891328125 3.6858879395 3.6849921875 3.6855085449 3.6865617676 3.6889782715 3.6944907227 3.6937731934 3.6899924316 3.6795629883 3.6836020508 3.6881643066 3.6919401855 3.6884514160 3.6798540039 3.6799072266 3.6791892090 3.6870739746 3.6898520508 3.6931918945 3.6874902344 3.6856677246 3.6747111816 3.6749245605 3.6725895996 3.6825812988 3.6858537598 3.6857939453 3.6900632324 3.6807609863 3.6726809082 3.6660207520 3.6694121094 3.6695749512 3.6682509766 3.6676252441 3.6675805664 3.6732211914 3.6768015137 3.6800344238 3.6744375000 3.6733298340 3.6667795410 3.6620512695 3.6624838867 3.6647595215 3.6746933594 3.6705053711 3.6581201172 3.6482600098 3.6530358887 3.6582165527 3.6643181152 3.6563300781 3.6484538574 3.6412236328 3.6474089355 3.6625932617 3.6660087891 3.6665991211 3.6601860352 3.6643356934 3.6601193848 3.6625112305 3.6556623535 3.6509426270 3.6435317383 3.6491423340 3.6550842285 3.6549645996 3.6468659668 3.6328457031 3.6316110840 3.6315588379 3.6365241699 3.6316877441 3.6253381348 3.6239404297 3.6316149902 3.6395886230 3.6410229492 3.6386618652 3.6246088867 3.6181682129 3.6101423340 3.6169968262 3.6154389648
3.8041003418 3.7839384766 3.7885952148 3.8043278809 3.8197915039 3.8112863770 3.8040393066 3.7959978027 3.7971994629 3.7965742188 3.7908483887 3.7863781738 3.7852199707 3.7841442871 3.7819135742 3.7877607422 3.7972866211 3.7924431152 3.7823237305 3.7772819824 3.7869443359 3.7888725586 3.7893635254 3.7807216797 3.7845070801 3.7912094727 3.7932392578 3.7850615234 3.7848552246 3.7905212402 3.7812019043 3.7774262695 3.7689494629 3.7756562500 3.7861782227 3.7921198730 3.7825109863 3.7747561035 3.7671669922 3.7741884766 3.7814047852 3.7863522949 3.7821586914 3.7831982422 3.7766230469 3.7640158691 3.7675454102 3.7682502441 3.7705554199 3.7629724121 3.7649130859 3.7696298828 3.7724470215 3.7649567871 3.7608039551 3.7549853516 3.7502929688 3.7489968262 3.7567202148 3.7581130371 3.7548769531 3.7595727539 3.7539343262 3.7478129883 3.7521933594 3.7671010742 3.7734880371 3.7661977539 3.7494897461 3.7482993164 3.7468945313 3.7445341797 3.7388308105 3.7390095215 3.7431264648 3.7446838379 3.7394528809 3.7339587402 3.7278388672 3.7263896484 3.7319550781 3.7386994629 3.7372897949 3.7350974121 3.7375554199 3.7434477539 3.7472573242 3.7454450684 3.7408308105 3.7381923828 3.7344738770 3.7352509766 3.7383046875 3.7342902832 3.7305844727 3.7205754395 3.7205610352 3.7265446777 3.7277248535 3.7284929199 3.7256005859 3.7230983887 3.7243310547 3.7308671875 3.7252573242 3.7232031250 3.7224848633 3.7205158691 3.7223112793 3.7275659180 3.7369348145 3.7379365234 3.7375805664 3.7327131348 3.7339943848 3.7380544434 3.7342309570 3.7312553711 3.7312614746 3.7278193359 3.7198649902 3.7193522949 3.7182541504 3.7238374023 3.7296833496 3.7248378906 3.7126364746 3.7031770020 3.7082827148 3.7193508301 3.7265708008 3.7206110840 3.7270581055 3.7268713379 3.7234123535 3.7226779785 3.7223530273 3.7211147461 3.7155383301 3.7088854980 3.7043073730 3.7108623047 3.7069736328 3.7079848633 3.6994692383 3.7040974121 3.7113581543 3.7168342285 3.7209196777 3.7166865234 3.7081931152 3.7042602539 3.7083251953 3.7106459961 3.7072717285 3.7064130859 3.7047241211 3.7032863770 3.7010917969 3.7033479004 3.7068510742 3.7119321289 3.7102675781 3.7025319824 3.6898859863 3.6875717773 3.6920090332 3.7051958008 3.7076904297 3.7069348145 3.7047617187 3.7032648926 3.6916293945 3.6870134277 3.6889094238 3.6919094238 3.6896254883 3.6879160156 3.6907692871 3.6980139160 3.6995434570 3.6970314941 3.6900058594 3.6904543457 3.6929130859 3.6835888672 3.6762231445 3.6827138672 3.6913771973 3.6913474121 3.6800688477 3.6742995605 3.6759887695 3.6793276367 3.6801223145 3.6750458984 3.6685974121 3.6618940430 3.6653654785 3.6767121582 3.6815129395 3.6837131348 3.6779736328 3.6800261230 3.6747780762 3.6789064941 3.6746701660 3.6720102539 3.6702463379 3.6698154297 3.6677902832 3.6607277832 3.6571777344 3.6583352051 3.6596936035 3.6541318359 3.6531188965 3.6522932129 3.6525705566 3.6523125000 3.6529331055 3.6605625000 3.6580871582 3.6519313965 3.6402644043 3.6363317871 3.6381364746 3.6419555664 3.6410017090
3.8424094238 3.8232839355 3.8164970703 3.8279250488 3.8456418457 3.8394514160 3.8205585937 3.8182033691 3.8291657715 3.8256809082 3.8238847656 3.8230424805 3.8133959961 3.8130798340 3.8204187012 3.8309038086 3.8266455078 3.8201198730 3.8088964844 3.8079924316 3.8125388184 3.8130336914 3.8107888184 3.8084794922 3.8062761230 3.8172167969 3.8205566406 3.8194733887 3.8095012207 3.8200393066 3.8141213379 3.8031611328 3.7930102539 3.8074116211 3.7985974121 3.7953666992 3.7945656738 3.7912944336 3.7869218750 3.7978872070 3.8070253906 3.8026235352 3.8091667480 3.8107441406 3.8044426270 3.7987434082 3.7887509766 3.7899831543 3.7880034180 3.7837465820 3.7809421387 3.7864458008 3.7837187500 3.7878764648 3.7929050293 3.7861062012 3.7787744141 3.7764384766 3.7848449707 3.7820153809 3.7759948730 3.7783698730 3.7730546875 3.7637080078 3.7624716797 3.7805273438 3.7904814453 3.7918825684 3.7786152344 3.7706760254 3.7738217773 3.7736379395 3.7742446289 3.7712429199 3.7699636230 3.7642365723 3.7596083984 3.7580854492 3.7573774414 3.7613403320 3.7694895020 3.7692971191 3.7637971191 3.7575219727 3.7622692871 3.7666049805 3.7662214355 3.7668078613 3.7644038086 3.7617751465 3.7617321777 3.7608051758 3.7604721680 3.7588552246 3.7542443848 3.7448454590 3.7513364258 3.7577177734 3.7580327148 3.7583120117 3.7496840820 3.7521440430 3.7519904785 3.7609746094 3.7578149414 3.7506413574 3.7530214844 3.7477250977 3.7486423340 3.7515700684 3.7567082520 3.7573625488 3.7570786133 3.7579404297 3.7634296875 3.7647341309 3.7620883789 3.7563332520 3.7546560059 3.7530957031 3.7452841797 3.7447299805 3.7389130859 3.7485092773 3.7479904785 3.7547143555 3.7374719238 3.7312238770 3.7319455566 3.7372004395 3.7411762695 3.7428737793 3.7495195313 3.7482263184 3.7495134277 3.7429462891 3.7517272949 3.7465163574 3.7420422363 3.7357956543 3.7313293457 3.7338950195 3.7373310547 3.7332646484 3.7277863770 3.7263312988 3.7331574707 3.7392124023 3.7373413086 3.7313518066 3.7251367187 3.7275207520 3.7329448242 3.7307541504 3.7283937988 3.7276745605 3.7355957031 3.7323259277 3.7299685059 3.7269643555 3.7272761230 3.7291215820 3.7280341797 3.7227900391 3.7104733887 3.7160407715 3.7249604492 3.7322795410 3.7294182129 3.7199321289 3.7167917480 3.7141303711 3.7209863281 3.7145666504 3.7188034668 3.7176188965 3.7129787598 3.7092626953 3.7100705566 3.7152578125 3.7119047852 3.7140148926 3.7094575195 3.7100031738 3.7124667969 3.7115825195 3.7049807129 3.7117067871 3.7188034668 3.7147409668 3.7069584961 3.7030251465 3.7035302734 3.7029504395 3.6968874512 3.6935187988 3.6869843750 3.6837663574 3.6803776855 3.6877031250 3.7000043945 3.7022983398 3.6948540039 3.6942988281 3.6885832520 3.6882507324 3.6867133789 3.6889482422 3.6877431641 3.6900502930 3.6840256348 3.6784699707 3.6795063477 3.6782739258 3.6871713867 3.6803161621 3.6754196777 3.6741203613 3.6784760742 3.6757119141 3.6691958008 3.6655395508 3.6760034180 3.6723339844 3.6604040527 3.6606062012 3.6681276855 3.6701936035 3.6605803223
3.8677019043 3.8545554199 3.8615268555 3.8516589355 3.8648791504 3.8535390625 3.8438896484 3.8400249023 3.8618757324 3.8570300293 3.8512204590 3.8491799316 3.8481357422 3.8429104004 3.8449645996 3.8456950684 3.8499194336 3.8460849609 3.8400124512 3.8349497070 3.8365773926 3.8436093750 3.8354824219 3.8279824219 3.8358762207 3.8449484863 3.8506362305 3.8391818848 3.8282746582 3.8323083496 3.8395810547 3.8270817871 3.8178330078 3.8184936523 3.8096914063 3.8054069824 3.8031000977 3.8101223145 3.8128015137 3.8166625977 3.8172788086 3.8195515137 3.8251809082 3.8235317383 3.8308132324 3.8182006836 3.8193540039 3.8109318848 3.8159699707 3.8077714844 3.7981127930 3.7981228027 3.7964135742 3.8051376953 3.8118942871 3.8116162109 3.8031992188 3.7980244141 3.7993481445 3.7963120117 3.8013740234 3.7978706055 3.7919423828 3.7773029785 3.7821860352 3.7860327148 3.7958364258 3.8081557617 3.8016833496 3.7908845215 3.7895175781 3.8009626465 3.8026557617 3.7989135742 3.7881423340 3.7818505859 3.7805224609 3.7855261230 3.7858596191 3.7860986328 3.7909682617 3.7981110840 3.7923754883 3.7838662109 3.7808139648 3.7854631348 3.7851494141 3.7850031738 3.7796232910 3.7829262695 3.7883708496 3.7922875977 3.7947272949 3.7874216309 3.7793017578 3.7751166992 3.7729338379 3.7803105469 3.7753942871 3.7822624512 3.7723129883 3.7791010742 3.7824089355 3.7957106934 3.7924179688 3.7824970703 3.7806364746 3.7827817383 3.7816657715 3.7785053711 3.7803847656 3.7783867188 3.7825390625 3.7774025879 3.7798176270 3.7769177246 3.7750170898 3.7699992676 3.7656955566 3.7642446289 3.7617736816 3.7630708008 3.7587058105 3.7662412109 3.7725407715 3.7828417969 3.7728488770 3.7637067871 3.7550532227 3.7544318848 3.7579072266 3.7635319824 3.7657912598 3.7666223145 3.7647832031 3.7651359863 3.7686428223 3.7685666504 3.7651499023 3.7596015625 3.7566613770 3.7581535645 3.7506184082 3.7465815430 3.7477407227 3.7493364258 3.7519001465 3.7558681641 3.7549621582 3.7517529297 3.7452355957 3.7494006348 3.7499299316 3.7497351074 3.7480344238 3.7492973633 3.7506459961 3.7535541992 3.7537702637 3.7467775879 3.7446225586 3.7399177246 3.7383403320 3.7386655273 3.7404558105 3.7457141113 3.7471186523 3.7483017578 3.7425307617 3.7359736328 3.7335937500 3.7354667969 3.7406098633 3.7430764160 3.7404062500 3.7385371094 3.7354792480 3.7396040039 3.7398076172 3.7337915039 3.7240124512 3.7254560547 3.7255705566 3.7295280762 3.7246616211 3.7308935547 3.7290825195 3.7324543457 3.7310078125 3.7281596680 3.7241086426 3.7257702637 3.7257175293 3.7231018066 3.7111259766 3.7062587891 3.7053276367 3.7083291016 3.7058806152 3.7109465332 3.7169855957 3.7201135254 3.7164033203 3.7082111816 3.7032824707 3.7014709473 3.7034580078 3.7068334961 3.7038552246 3.7011191406 3.6985510254 3.6970390625 3.6946984863 3.6985712891 3.7085781250 3.7063723145 3.6978112793 3.6897915039 3.6870895996 3.6911406250 3.6849511719 3.6935388184 3.6931254883 3.6917878418 3.6792795410 3.6790000000 3.6801042480 3.6795690918 3.6727033691
3.8758598633 3.8886931152 3.8912592773 3.8967387695 3.8924721680 3.8827971191 3.8754921875 3.8795097656 3.8945261230 3.8949853516 3.8797919922 3.8722102051 3.8808657227 3.8713679199 3.8668081055 3.8673627930 3.8692729492 3.8786142578 3.8749340820 3.8653593750 3.8674929199 3.8702570801 3.8561403809 3.8403381348 3.8537851563 3.8744089355 3.8736223145 3.8599763184 3.8537114258 3.8520881348 3.8564997559 3.8563325195 3.8422404785 3.8398010254 3.8428591309 3.8392846680 3.8340458984 3.8358935547 3.8362766113 3.8316235352 3.8340249023 3.8398552246 3.8392775879 3.8436582031 3.8420187988 3.8434372559 3.8304887695 3.8384301758 3.8402666016 3.8331828613 3.8211098633 3.8183767090 3.8117756348 3.8204348145 3.8287392578 3.8370112305 3.8358369141 3.8292292480 3.8253085937 3.8212832031 3.8250988770 3.8276223145 3.8193815918 3.8152495117 3.8134416504 3.8174895020 3.8194851074 3.8304960937 3.8278283691 3.8170800781 3.8152731934 3.8256840820 3.8265275879 3.8153312988 3.8069680176 3.8018774414 3.8088942871 3.8158869629 3.8099472656 3.8016350098 3.8079096680 3.8131206055 3.8118930664 3.8060637207 3.7995312500 3.8043107910 3.8069196777 3.8110065918 3.8008361816 3.8052045898 3.8067385254 3.8210732422 3.8207634277 3.8133691406 3.8098457031 3.8000800781 3.7988547363 3.7967648926 3.7973610840 3.8067451172 3.8067731934 3.8073088379 3.8115937500 3.8159956055 3.8149719238 3.8019594727 3.8061281738 3.8056245117 3.8114680176 3.8050708008 3.8050153809 3.8016660156 3.8035986328 3.7982993164 3.7966098633 3.7881552734 3.7900151367 3.7845368652 3.7892807617 3.7920017090 3.7912319336 3.7907336426 3.7791875000 3.7860783691 3.7877141113 3.8036193848 3.7996564941 3.7995856934 3.7831340332 3.7828737793 3.7828872070 3.7916669922 3.7929958496 3.7895578613 3.7843752441 3.7788308105 3.7794755859 3.7892387695 3.7893093262 3.7880058594 3.7861472168 3.7795942383 3.7749426270 3.7710639648 3.7796528320 3.7827529297 3.7771821289 3.7721206055 3.7745502930 3.7735249023 3.7650166016 3.7614140625 3.7610983887 3.7660224609 3.7750305176 3.7763715820 3.7767253418 3.7698061523 3.7730261230 3.7712060547 3.7676176758 3.7637517090 3.7559519043 3.7572712402 3.7619406738 3.7668596191 3.7667968750 3.7663833008 3.7594675293 3.7549033203 3.7569199219 3.7651958008 3.7652048340 3.7642531738 3.7602407227 3.7564318848 3.7583134766 3.7645688477 3.7644287109 3.7604196777 3.7458408203 3.7474841309 3.7513791504 3.7550827637 3.7538334961 3.7555671387 3.7552019043 3.7596267090 3.7540849609 3.7494575195 3.7487023926 3.7453386230 3.7460944824 3.7428085937 3.7364489746 3.7321403809 3.7356359863 3.7366474609 3.7301181641 3.7288012695 3.7324323730 3.7378645020 3.7382573242 3.7291909180 3.7247526855 3.7259011230 3.7271562500 3.7216188965 3.7150766602 3.7172429199 3.7222028809 3.7236389160 3.7226892090 3.7220563965 3.7243271484 3.7234582520 3.7236865234 3.7131577148 3.7078859863 3.7042399902 3.7105886230 3.7138996582 3.7118015137 3.7069775391 3.7051547852 3.6988977051 3.6992094727 3.6947014160 3.6872241211
3.9121289062 3.9071745605 3.9238435059 3.9208193359 3.9223708496 3.9180593262 3.9144064941 3.9110659180 3.9239174805 3.9144511719 3.9033820801 3.8943559570 3.8973276367 3.8949921875 3.8960732422 3.8963989258 3.8973808594 3.8992343750 3.8940358887 3.8853095703 3.8814484863 3.8864589844 3.8859375000 3.8761770020 3.8856462402 3.8935888672 3.8895009766 3.8781730957 3.8729291992 3.8714953613 3.8764680176 3.8749792480 3.8761713867 3.8625805664 3.8758229980 3.8837888184 3.8834897461 3.8690444336 3.8606406250 3.8564809570 3.8643469238 3.8670847168 3.8678671875 3.8586186523 3.8563833008 3.8483310547 3.8610849609 3.8627868652 3.8650625000 3.8584133301 3.8486022949 3.8395852051 3.8419414063 3.8420419922 3.8459492187 3.8558857422 3.8547148438 3.8528007813 3.8495415039 3.8477951660 3.8476633301 3.8400122070 3.8412719727 3.8361733398 3.8435759277 3.8428146973 3.8524416504 3.8577976074 3.8522954102 3.8439428711 3.8415900879 3.8460537109 3.8410319824 3.8361801758 3.8238039551 3.8378417969 3.8436389160 3.8440029297 3.8344895020 3.8271740723 3.8166918945 3.8208745117 3.8258461914 3.8295942383 3.8240148926 3.8250356445 3.8290324707 3.8264702148 3.8202871094 3.8229030762 3.8360959473 3.8337685547 3.8284931641 3.8250776367 3.8230383301 3.8213981934 3.8156169434 3.8101423340 3.8136472168 3.8276752930 3.8409936523 3.8389226074 3.8339226074 3.8313461914 3.8301125488 3.8201909180 3.8146938477 3.8175124512 3.8263833008 3.8307707520 3.8269824219 3.8191779785 3.8187927246 3.8159174805 3.8120861816 3.8117951660 3.8049699707 3.8018935547 3.8016662598 3.8087875977 3.8089467773 3.8056022949 3.7979443359 3.7953283691 3.7973017578 3.8102934570 3.8104899902 3.8115825195 3.8054255371 3.7981870117 3.8008159180 3.8101611328 3.8093798828 3.8137800293 3.8051477051 3.7976530762 3.7922941895 3.8001489258 3.8044150391 3.8103903809 3.8089775391 3.8036896973 3.7973374023 3.8026577148 3.8072360840 3.7972363281 3.7950629883 3.7951188965 3.8079328613 3.8070649414 3.7943835449 3.7800588379 3.7767158203 3.7823837891 3.7929282227 3.7996743164 3.7928220215 3.7917553711 3.7910454102 3.7921367188 3.7876599121 3.7844130859 3.7786884766 3.7803437500 3.7829575195 3.7870385742 3.7856562500 3.7905249023 3.7803701172 3.7854562988 3.7882663574 3.7939929199 3.7871516113 3.7781333008 3.7706098633 3.7736237793 3.7798225098 3.7905856934 3.7917509766 3.7815900879 3.7697558594 3.7681394043 3.7697229004 3.7798256836 3.7773933105 3.7795219727 3.7745732422 3.7794025879 3.7737790527 3.7700241699 3.7693388672 3.7655747070 3.7649370117 3.7602583008 3.7600791016 3.7559814453 3.7567888184 3.7581472168 3.7496518555 3.7414975586 3.7428498535 3.7470595703 3.7475910645 3.7380656738 3.7363474121 3.7399638672 3.7475222168 3.7432778320 3.7375153809 3.7422209473 3.7427609863 3.7478247070 3.7468356934 3.7395954590 3.7368327637 3.7455942383 3.7547297363 3.7408056641 3.7258745117 3.7194262695 3.7293398438 3.7323093262 3.7348544922 3.7336904297 3.7344514160 3.7323093262 3.7327963867 3.7177902832 3.7085825195
3.9374221191 3.9473881836 3.9470998535 3.9543317871 3.9554619141 3.9732980957 3.9587365723 3.9480053711 3.9466069336 3.9499487305 3.9278366699 3.9092602539 3.9075500488 3.9204201660 3.9312656250 3.9280605469 3.9254653320 3.9257255859 3.9223576660 3.9204343262 3.9111523437 3.9161291504 3.9171989746 3.9128266602 3.9022724609 3.9048508301 3.9115410156 3.9043684082 3.9079692383 3.8997185059 3.9022268066 3.9058708496 3.9162980957 3.9115336914 3.9053464355 3.9133510742 3.9104726563 3.9009084473 3.8843105469 3.8865356445 3.8882075195 3.8992934570 3.8898371582 3.8844304199 3.8798410645 3.8820483398 3.8902971191 3.8955686035 3.8852290039 3.8777377930 3.8798618164 3.8772814941 3.8685375977 3.8738701172 3.8811269531 3.8823623047 3.8852031250 3.8822692871 3.8785466309 3.8752619629 3.8685251465 3.8659199219 3.8665200195 3.8763176270 3.8814406738 3.8758610840 3.8755366211 3.8771545410 3.8825000000 3.8754086914 3.8667470703 3.8636284180 3.8632006836 3.8551228027 3.8557666016 3.8671899414 3.8726940918 3.8663972168 3.8561293945 3.8515979004 3.8434729004 3.8420583496 3.8456118164 3.8616052246 3.8633981934 3.8650590820 3.8510756836 3.8447927246 3.8423513184 3.8540737305 3.8529909668 3.8478229980 3.8328979492 3.8346975098 3.8413017578 3.8395329590 3.8417534180 3.8352080078 3.8358964844 3.8430812988 3.8588359375 3.8582626953 3.8521042480 3.8431120605 3.8441442871 3.8420861816 3.8351640625 3.8375676270 3.8450336914 3.8410336914 3.8350556641 3.8285449219 3.8316582031 3.8263066406 3.8387653809 3.8360874023 3.8304824219 3.8226113281 3.8286071777 3.8284157715 3.8297014160 3.8294362793 3.8233576660 3.8235576172 3.8213945313 3.8293510742 3.8267407227 3.8278437500 3.8214333496 3.8225266113 3.8290939941 3.8304394531 3.8263588867 3.8256037598 3.8253945313 3.8263598633 3.8214079590 3.8233151855 3.8217482910 3.8352482910 3.8400483398 3.8331171875 3.8295747070 3.8303007813 3.8323139648 3.8177187500 3.8131528320 3.8213537598 3.8294494629 3.8295656738 3.8169196777 3.8085676270 3.8010800781 3.8100893555 3.8230683594 3.8220266113 3.8176086426 3.8162111816 3.8191748047 3.8237336426 3.8110605469 3.8084001465 3.8001362305 3.8096142578 3.8119565430 3.8109035645 3.8142368164 3.8136191406 3.8112285156 3.8104128418 3.8114331055 3.8125300293 3.8106928711 3.8076296387 3.8018608398 3.7974040527 3.8044208984 3.8107934570 3.8095119629 3.7990861816 3.7924699707 3.7931857910 3.7966318359 3.7963039551 3.8000688477 3.8021806641 3.7963613281 3.7920869141 3.7905305176 3.7885551758 3.7932934570 3.7848576660 3.7837260742 3.7749370117 3.7808647461 3.7760083008 3.7817624512 3.7822316895 3.7740280762 3.7668508301 3.7675109863 3.7697895508 3.7701328125 3.7612805176 3.7598081055 3.7594924316 3.7688493652 3.7667387695 3.7653349609 3.7675617676 3.7686472168 3.7723596191 3.7710808105 3.7620058594 3.7573437500 3.7667402344 3.7872194824 3.7691064453 3.7532407227 3.7390634766 3.7492958984 3.7508056641 3.7585026855 3.7540971680 3.7580812988 3.7629880371 3.7635998535 3.7427246094 3.7332524414
3.9750844727 3.9701250000 3.9749931641 3.9804921875 3.9882192383 3.9961425781 3.9942729492 3.9776530762 3.9718666992 3.9692739258 3.9571562500 3.9444941406 3.9401584473 3.9629357910 3.9682348633 3.9632622070 3.9604260254 3.9594421387 3.9587468262 3.9555004883 3.9521877441 3.9475288086 3.9425622559 3.9348425293 3.9238825684 3.9313984375 3.9412639160 3.9438803711 3.9560117188 3.9509218750 3.9386101074 3.9383745117 3.9512048340 3.9456770020 3.9356286621 3.9341608887 3.9350847168 3.9271718750 3.9201313477 3.9180407715 3.9180341797 3.9185781250 3.9227119141 3.9089389648 3.9091721191 3.9102729492 3.9179824219 3.9173352051 3.9139946289 3.9014909668 3.9001069336 3.8984929199 3.8991127930 3.9030500488 3.9109514160 3.9141721191 3.9098652344 3.9064350586 3.9013610840 3.8943408203 3.8975397949 3.8954851074 3.9007590332 3.9009836426 3.9054929199 3.8998703613 3.8934338379 3.8872604980 3.9008991699 3.9040480957 3.8967961426 3.8904594727 3.8835737305 3.8836496582 3.8810551758 3.8837788086 3.8903208008 3.8830847168 3.8707663574 3.8660214844 3.8652663574 3.8741035156 3.8913293457 3.8955302734 3.8974248047 3.8893640137 3.8727355957 3.8692075195 3.8713166504 3.8774863281 3.8727817383 3.8619497070 3.8560122070 3.8535134277 3.8560021973 3.8597617188 3.8660859375 3.8619658203 3.8647583008 3.8638552246 3.8695957031 3.8707666016 3.8665117187 3.8604262695 3.8583349609 3.8579631348 3.8532297363 3.8598664551 3.8676689453 3.8593315430 3.8471860352 3.8449543457 3.8480500488 3.8533991699 3.8617966309 3.8686408691 3.8651191406 3.8538732910 3.8517102051 3.8529350586 3.8426425781 3.8541242676 3.8526977539 3.8475405273 3.8440295410 3.8452145996 3.8468618164 3.8380632324 3.8346215820 3.8365168457 3.8439318848 3.8415256348 3.8382321777 3.8424780273 3.8445524902 3.8506943359 3.8473710938 3.8484636230 3.8462253418 3.8549658203 3.8581132813 3.8544240723 3.8516464844 3.8527749023 3.8543540039 3.8472314453 3.8390856934 3.8356181641 3.8376977539 3.8402666016 3.8384172363 3.8358542480 3.8329753418 3.8421665039 3.8451784668 3.8431538086 3.8368337402 3.8410922852 3.8420488281 3.8453430176 3.8292189941 3.8201301270 3.8198889160 3.8312529297 3.8333642578 3.8275878906 3.8243032227 3.8240981445 3.8290964355 3.8292727051 3.8359978027 3.8340249023 3.8320424805 3.8339492187 3.8358798828 3.8335666504 3.8286552734 3.8311093750 3.8320593262 3.8275270996 3.8171962891 3.8185358887 3.8111135254 3.8122023926 3.8093120117 3.8170913086 3.8101447754 3.8067636719 3.8054541016 3.8111799316 3.8123625488 3.8103742676 3.8109111328 3.8107324219 3.8061982422 3.8036025391 3.8062438965 3.8114790039 3.8078415527 3.8042248535 3.8010310059 3.7956357422 3.7950805664 3.7870754395 3.7824570312 3.7807788086 3.7858149414 3.7915263672 3.7910727539 3.7878220215 3.7800256348 3.7779460449 3.7836333008 3.7832568359 3.7845720215 3.8061984863 3.8056352539 3.7852375488 3.7754045410 3.7707570801 3.7713498535 3.7704418945 3.7744042969 3.7692902832 3.7780444336 3.7768273926 3.7834201660 3.7611821289 3.7581469727
4.0078718262 4.0059099121 3.9982980957 4.0030554199 4.0247453613 4.0238442383 4.0226718750 4.0131523437 3.9970537109 3.9883173828 3.9852084961 3.9889997559 3.9975920410 4.0050881348 4.0019606934 4.0013378906 3.9992810059 3.9959062500 3.9975732422 3.9788752441 3.9835644531 3.9862546387 3.9757480469 3.9581555176 3.9561230469 3.9795056152 3.9723742676 3.9738981934 3.9839685059 3.9915986328 3.9791022949 3.9700166016 3.9715673828 3.9723049316 3.9642307129 3.9599045410 3.9543059082 3.9540217285 3.9486127930 3.9502768555 3.9476567383 3.9547192383 3.9480126953 3.9590087891 3.9372299805 3.9382004395 3.9408859863 3.9465925293 3.9410151367 3.9336850586 3.9274667969 3.9155632324 3.9178862305 3.9319726563 3.9440100098 3.9386386719 3.9353647461 3.9283586426 3.9209255371 3.9174211426 3.9282116699 3.9277497559 3.9262426758 3.9222639160 3.9248403320 3.9211582031 3.9246916504 3.9272990723 3.9365751953 3.9283081055 3.9264992676 3.9209931641 3.9119270020 3.9112631836 3.9129924316 3.9151484375 3.9087585449 3.9125336914 3.8963654785 3.8904143066 3.8951254883 3.9059921875 3.9168500977 3.9257609863 3.9183420410 3.9102426758 3.8994624023 3.8964338379 3.8933078613 3.8902170410 3.8873935547 3.8886113281 3.8864931641 3.8914521484 3.8812016602 3.8826640625 3.8899924316 3.8947973633 3.8981044922 3.8927995605 3.8876477051 3.8867160645 3.8904079590 3.8848732910 3.8749787598 3.8779877930 3.8780441895 3.8894160156 3.8915664062 3.8831979980 3.8752084961 3.8745666504 3.8837583008 3.8861374512 3.8876979980 3.8828618164 3.8850332031 3.8796347656 3.8844963379 3.8762436523 3.8834147949 3.8842946777 3.8840124512 3.8750107422 3.8754025879 3.8759340820 3.8758181152 3.8611730957 3.8586552734 3.8598300781 3.8699831543 3.8685327148 3.8729306641 3.8726330566 3.8693364258 3.8704980469 3.8758117676 3.8789101562 3.8784814453 3.8752897949 3.8726044922 3.8733735352 3.8758984375 3.8756352539 3.8807878418 3.8770043945 3.8685573730 3.8597260742 3.8539675293 3.8579550781 3.8535375977 3.8591037598 3.8608967285 3.8649916992 3.8665617676 3.8585615234 3.8629599609 3.8641076660 3.8702934570 3.8685239258 3.8508576660 3.8453544922 3.8423161621 3.8553356934 3.8492426758 3.8401115723 3.8379165039 3.8400656738 3.8529731445 3.8560480957 3.8559458008 3.8540134277 3.8601413574 3.8547585449 3.8645559082 3.8567036133 3.8428256836 3.8434404297 3.8536413574 3.8533125000 3.8478271484 3.8442397461 3.8431340332 3.8377995605 3.8307819824 3.8283781738 3.8259201660 3.8277150879 3.8327419434 3.8401052246 3.8387902832 3.8328657227 3.8339943848 3.8429235840 3.8387109375 3.8343339844 3.8345537109 3.8359060059 3.8387004395 3.8328447266 3.8332207031 3.8257741699 3.8260803223 3.8185891113 3.8197556152 3.8140451660 3.8227136230 3.8201447754 3.8203706055 3.8099257813 3.8012148437 3.7977084961 3.8079135742 3.8175798340 3.8199645996 3.8255498047 3.8283486328 3.8107866211 3.8068239746 3.8080815430 3.8066777344 3.7927202148 3.7875419922 3.7943020020 3.7959709473 3.8064626465 3.8013698730 3.7868962402 3.7839882813
4.0466062012 4.0452734375 4.0429382324 4.0438105469 4.0523422852 4.0582949219 4.0510966797 4.0458640137 4.0239833984 4.0168879395 4.0179765625 4.0291530762 4.0313981934 4.0357995605 4.0381054688 4.0352587891 4.0289357910 4.0293608398 4.0323845215 4.0257116699 4.0173413086 4.0187387695 4.0191801758 4.0160009766 4.0221879883 4.0169189453 4.0132705078 4.0118920898 4.0116674805 4.0126870117 4.0092700195 3.9987062988 3.9940373535 3.9945656738 3.9876936035 3.9838056641 3.9811220703 3.9868867188 3.9802910156 3.9777705078 3.9756164551 3.9892128906 3.9863430176 3.9851430664 3.9809807129 3.9520380859 3.9532419434 3.9715644531 3.9746345215 3.9676071777 3.9586879883 3.9576591797 3.9659421387 3.9582145996 3.9648813477 3.9621972656 3.9605925293 3.9612622070 3.9602143555 3.9514624023 3.9520268555 3.9438918457 3.9465473633 3.9490849609 3.9553005371 3.9476657715 3.9547861328 3.9674375000 3.9656330566 3.9565549316 3.9558129883 3.9530651855 3.9430917969 3.9298764648 3.9360900879 3.9425473633 3.9408100586 3.9315712891 3.9265734863 3.9200793457 3.9301535645 3.9367927246 3.9389184570 3.9370444336 3.9298105469 3.9219350586 3.9198735352 3.9260466309 3.9194179687 3.9139438477 3.9149055176 3.9136103516 3.9220866699 3.9219321289 3.9230788574 3.9115036621 3.9208171387 3.9224753418 3.9253164062 3.9208691406 3.9108459473 3.9106716309 3.9099980469 3.9109016113 3.9024621582 3.9087658691 3.9135329590 3.9153303223 3.9165747070 3.9150500488 3.9093310547 3.9071669922 3.9060991211 3.9073935547 3.9086972656 3.9027058105 3.9031826172 3.9012507324 3.9035402832 3.8964433594 3.9012136230 3.8971699219 3.9022260742 3.8916342773 3.8939440918 3.8976713867 3.9167902832 3.8956662598 3.8816662598 3.8804516602 3.8881977539 3.8929230957 3.8924558105 3.8957941895 3.8908701172 3.8900266113 3.8923525391 3.8982204590 3.8981850586 3.8899128418 3.8861445313 3.8857482910 3.8930500488 3.8949321289 3.9002836914 3.8986513672 3.8927416992 3.8872495117 3.8807395020 3.8811259766 3.8744514160 3.8758671875 3.8806445313 3.8857482910 3.8793808594 3.8774414062 3.8832145996 3.8858901367 3.8892783203 3.8869145508 3.8757924805 3.8696594238 3.8681721191 3.8742297363 3.8703337402 3.8585527344 3.8569687500 3.8623869629 3.8774301758 3.8754594727 3.8802805176 3.8714379883 3.8752163086 3.8740476074 3.8820954590 3.8744484863 3.8615351562 3.8564594727 3.8694213867 3.8744057617 3.8649082031 3.8640075684 3.8627497559 3.8674494629 3.8575495605 3.8571599121 3.8544431152 3.8631545410 3.8623315430 3.8671376953 3.8588916016 3.8518713379 3.8573466797 3.8652614746 3.8607814941 3.8543808594 3.8518457031 3.8487319336 3.8529731445 3.8580029297 3.8559277344 3.8413862305 3.8405148926 3.8427561035 3.8477343750 3.8481301270 3.8433137207 3.8477314453 3.8449013672 3.8393059082 3.8289313965 3.8321831055 3.8368530273 3.8527653809 3.8526306152 3.8460207520 3.8385051270 3.8402082520 3.8318354492 3.8339001465 3.8302307129 3.8307314453 3.8235917969 3.8212385254 3.8318200684 3.8259301758 3.8196362305 3.8140976562 3.8194135742
4.0976030273 4.0886791992 4.0794306641 4.0815520020 4.0891735840 4.0901821289 4.0813654785 4.0648410645 4.0562829590 4.0520952148 4.0583332520 4.0617404785 4.0598208008 4.0749970703 4.0694387207 4.0671750488 4.0574626465 4.0587604980 4.0635102539 4.0633366699 4.0560058594 4.0423544922 4.0486059570 4.0491125488 4.0397922363 4.0552802734 4.0586103516 4.0399858398 4.0404392090 4.0507790527 4.0531347656 4.0248698730 4.0265434570 4.0264396973 4.0136467285 4.0024235840 4.0081967773 4.0164809570 4.0111613770 4.0020332031 4.0114802246 4.0118669434 4.0078234863 4.0018547363 3.9917758789 3.9842287598 3.9838967285 3.9916091309 4.0080573730 4.0041838379 3.9923742676 3.9821191406 3.9837758789 3.9933503418 4.0019833984 3.9930507813 3.9926496582 3.9908937988 3.9902785645 3.9899946289 3.9937133789 3.9769831543 3.9903242188 3.9915751953 3.9805678711 3.9767180176 3.9806252441 3.9904675293 3.9913911133 3.9827602539 3.9751914063 3.9773630371 3.9717604980 3.9599248047 3.9751987305 3.9664252930 3.9630412598 3.9552680664 3.9512717285 3.9505390625 3.9652160645 3.9651130371 3.9651530762 3.9556562500 3.9540812988 3.9482580566 3.9585485840 3.9675585938 3.9644033203 3.9589340820 3.9484748535 3.9432102051 3.9500930176 3.9587741699 3.9465227051 3.9493078613 3.9428437500 3.9408022461 3.9358979492 3.9329750977 3.9300222168 3.9341730957 3.9392976074 3.9427888184 3.9407431641 3.9497502441 3.9545334473 3.9508923340 3.9514675293 3.9479360352 3.9367373047 3.9324594727 3.9308095703 3.9289838867 3.9279370117 3.9279479980 3.9222265625 3.9203889160 3.9189958496 3.9141591797 3.9206882324 3.9209399414 3.9207160645 3.9205959473 3.9218627930 3.9297729492 3.9326279297 3.9270231934 3.9150598145 3.9108466797 3.9195793457 3.9132780762 3.9131899414 3.9163369141 3.9207145996 3.9175656738 3.9161816406 3.9235332031 3.9236875000 3.9175681152 3.9103378906 3.9117915039 3.9073190918 3.9154128418 3.9207482910 3.9194108887 3.9159787598 3.9078327637 3.9064763184 3.9109797363 3.9078508301 3.9052929687 3.9036606445 3.9080888672 3.9105822754 3.9078767090 3.9122365723 3.9140600586 3.9181323242 3.9174519043 3.9068540039 3.9014042969 3.8978244629 3.9069404297 3.9038930664 3.9019326172 3.8910651855 3.8884047852 3.8998144531 3.8929321289 3.8890646973 3.8908659668 3.8972739258 3.8983166504 3.9000122070 3.8988137207 3.8951848145 3.8942492676 3.8968540039 3.8947004395 3.8900520020 3.8862145996 3.8877788086 3.8895134277 3.8799582520 3.8816154785 3.8826069336 3.8917668457 3.8894411621 3.8916945801 3.8828452148 3.8762221680 3.8666459961 3.8770981445 3.8768020020 3.8739758301 3.8713952637 3.8749538574 3.8740454102 3.8784619141 3.8817292480 3.8680061035 3.8604147949 3.8622802734 3.8748139648 3.8747119141 3.8684914551 3.8716791992 3.8750000000 3.8688928223 3.8628840332 3.8673857422 3.8772343750 3.8780913086 3.8811489258 3.8718674316 3.8680727539 3.8568156738 3.8543593750 3.8544042969 3.8557365723 3.8600449219 3.8600427246 3.8611032715 3.8496472168 3.8473171387 3.8398334961 3.8368718262 3.8423122559
4.1181889648 4.1112119141 4.1025458984 4.1090488281 4.1246132813 4.1279291992 4.1108930664 4.0941022949 4.0931750488 4.0946398926 4.0927602539 4.0975537109 4.1001801758 4.0952207031 4.1004643555 4.0985483398 4.0963154297 4.0846430664 4.0849289551 4.0894370117 4.0869589844 4.0796650391 4.0746845703 4.0633215332 4.0718708496 4.0828742676 4.0936613770 4.0828625488 4.0669538574 4.0682746582 4.0678139648 4.0616838379 4.0540046387 4.0613283691 4.0661528320 4.0473669434 4.0473813477 4.0538918457 4.0442233887 4.0315610352 4.0354016113 4.0428078613 4.0329821777 4.0226464844 4.0230427246 4.0215666504 4.0133818359 4.0221149902 4.0345268555 4.0370112305 4.0281010742 4.0072795410 4.0135214844 4.0195761719 4.0270930176 4.0300024414 4.0287827148 4.0158962402 4.0290915527 4.0315427246 4.0337824707 4.0214108887 4.0208486328 4.0184619141 4.0096064453 3.9999453125 3.9995422363 4.0065886230 4.0155378418 4.0077353516 4.0067617187 4.0022817383 4.0019016113 3.9924536133 4.0032658691 4.0089499512 3.9932722168 3.9782978516 3.9763835449 3.9784973145 3.9928959961 4.0016752930 3.9902592773 3.9854782715 3.9798625488 3.9762502441 3.9834995117 3.9953144531 4.0015964355 3.9930834961 3.9835993652 3.9716989746 3.9772597656 3.9760627441 3.9857634277 3.9716025391 3.9694233398 3.9659008789 3.9667978516 3.9611623535 3.9539851074 3.9555883789 3.9604860840 3.9642880859 3.9675190430 3.9712646484 3.9710400391 3.9713481445 3.9689401855 3.9674099121 3.9662192383 3.9636904297 3.9616706543 3.9624079590 3.9633461914 3.9634680176 3.9638410645 3.9639392090 3.9543918457 3.9374235840 3.9409589844 3.9389741211 3.9550358887 3.9569394531 3.9508464355 3.9433513184 3.9485883789 3.9470537109 3.9563811035 3.9586152344 3.9495927734 3.9333820801 3.9278979492 3.9374968262 3.9461145020 3.9487016602 3.9477980957 3.9507871094 3.9500703125 3.9479470215 3.9465302734 3.9338374023 3.9440051270 3.9407163086 3.9480754395 3.9476040039 3.9386694336 3.9305893555 3.9318364258 3.9344052734 3.9358986816 3.9323439941 3.9274694824 3.9265568848 3.9329692383 3.9394785156 3.9412255859 3.9415065918 3.9381638184 3.9410595703 3.9305129395 3.9230939941 3.9224372559 3.9249624023 3.9266069336 3.9208041992 3.9075009766 3.9124262695 3.9253269043 3.9138442383 3.9175383301 3.9264489746 3.9314375000 3.9269309082 3.9264401855 3.9243774414 3.9305207520 3.9320573730 3.9263032227 3.9196564941 3.9197414551 3.9162536621 3.9130354004 3.9119023438 3.9044104004 3.9032329102 3.9100002441 3.9182016602 3.9091420898 3.9084909668 3.9075541992 3.9010632324 3.8940693359 3.8913652344 3.8989206543 3.8981779785 3.8912453613 3.8895378418 3.8983671875 3.8968645020 3.8989177246 3.8906655273 3.8819653320 3.8804030762 3.8881665039 3.8921931152 3.8997124023 3.9011196289 3.9042575684 3.8931940918 3.8853874512 3.8890009766 3.8966877441 3.9002087402 3.9024763184 3.9075109863 3.8956391602 3.8763979492 3.8707868652 3.8822170410 3.8898056641 3.8900651855 3.8807058105 3.8750524902 3.8710190430 3.8610061035 3.8695039063 3.8683967285 3.8648603516
4.1399028320 4.1359819336 4.1308784180 4.1313876953 4.1384375000 4.1496997070 4.1199565430 4.1496059570 4.1393613281 4.1363442383 4.1357626953 4.1358427734 4.1372377930 4.1314926758 4.1221513672 4.1327768555 4.1281503906 4.1101982422 4.1051401367 4.1180424805 4.1276699219 4.1117363281 4.1017695313 4.1070288086 4.1018383789 4.1104028320 4.1289086914 4.1227719727 4.0877861328 4.0790195313 4.0918845215 4.0887690430 4.0785747070 4.0953312988 4.1084663086 4.1029287109 4.0951467285 4.0804465332 4.0801579590 4.0737160645 4.0735612793 4.0797270508 4.0773466797 4.0687958984 4.0649538574 4.0611452637 4.0504943848 4.0552277832 4.0667797852 4.0718061523 4.0649870605 4.0566540527 4.0579926758 4.0461267090 4.0233811035 4.0490327148 4.0486555176 4.0522536621 4.0544846191 4.0533857422 4.0534509277 4.0482263184 4.0456547852 4.0321892090 4.0289323730 4.0277304687 4.0341218262 4.0375515137 4.0343764648 4.0385075684 4.0402214355 4.0318608398 4.0272507324 4.0290637207 4.0407983398 4.0434418945 4.0317834473 4.0092814941 4.0055131836 4.0169531250 4.0236760254 4.0189545898 4.0246484375 4.0154265137 4.0081264648 4.0058754883 4.0082663574 4.0210947266 4.0244201660 4.0198774414 4.0146977539 4.0016701660 3.9996562500 3.9936127930 4.0029040527 3.9993706055 3.9950097656 4.0020068359 3.9949902344 3.9911906738 3.9748684082 3.9770585938 3.9838137207 3.9922216797 4.0045190430 4.0043984375 3.9966701660 3.9868159180 3.9916447754 3.9925495605 3.9980920410 4.0075937500 4.0084423828 4.0004172363 3.9975493164 3.9980231934 3.9973417969 4.0028364258 4.0006293945 3.9901191406 3.9745710449 3.9806162109 3.9867102051 3.9932814941 3.9880327148 3.9860283203 3.9722155762 3.9815998535 3.9890729980 3.9981328125 3.9893583984 3.9673039551 3.9616740723 3.9672509766 3.9841418457 3.9850246582 3.9767622070 3.9771184082 3.9836208496 3.9890241699 3.9752399902 3.9753571777 3.9687185059 3.9676120605 3.9720871582 3.9738742676 3.9574453125 3.9626425781 3.9710129395 3.9654082031 3.9643110352 3.9623542480 3.9647355957 3.9575708008 3.9596987305 3.9707167969 3.9756386719 3.9724743652 3.9701176758 3.9685913086 3.9574179688 3.9532429199 3.9466071777 3.9533957520 3.9567231445 3.9439382324 3.9404855957 3.9427705078 3.9540014648 3.9573571777 3.9503459473 3.9538425293 3.9587175293 3.9541950684 3.9464636230 3.9464201660 3.9519973145 3.9601398926 3.9577597656 3.9492980957 3.9507680664 3.9524614258 3.9526669922 3.9488032227 3.9273522949 3.9292285156 3.9323569336 3.9421857910 3.9380463867 3.9336459961 3.9418681641 3.9297565918 3.9204311523 3.9130505371 3.9239245605 3.9244575195 3.9201628418 3.9176520996 3.9251064453 3.9295478516 3.9226577148 3.9211831055 3.9100058594 3.9110568848 3.9078908691 3.9178005371 3.9247292480 3.9346892090 3.9322338867 3.9223107910 3.9107106934 3.9095051270 3.9188137207 3.9134179688 3.9215815430 3.9271259766 3.9191945801 3.9038830566 3.9019436035 3.9198344727 3.9272438965 3.9127333984 3.9041652832 3.9009941406 3.9006459961 3.9167229004 3.9036286621 3.9042687988 3.9073288574
4.1705244141 4.1748041992 4.1582700195 4.1572729492 4.1562709961 4.1662944336 4.1830234375 4.1867348633 4.1871225586 4.1831904297 4.1730874023 4.1709321289 4.1815322266 4.1718242188 4.1568085938 4.1625419922 4.1685786133 4.1429301758 4.1419785156 4.1515761719 4.1617583008 4.1555400391 4.1528598633 4.1473120117 4.1411904297 4.1482133789 4.1598291016 4.1560747070 4.1623798828 4.1583652344 4.1463217773 4.1199438477 4.1266035156 4.1333725586 4.1302817383 4.1385078125 4.1372807617 4.1396318359 4.1319204102 4.1201972656 4.1106333008 4.1118989258 4.1091967773 4.1042412109 4.1022495117 4.0971303711 4.0899392090 4.0997529297 4.1017807617 4.1022534180 4.1008066406 4.1116191406 4.0964389648 4.1006884766 4.0865056152 4.0745993652 4.0887412109 4.0928244629 4.0970625000 4.0904990234 4.0738779297 4.0740280762 4.0719064941 4.0652919922 4.0582824707 4.0698452148 4.0748041992 4.0709973145 4.0620988770 4.0679069824 4.0793337402 4.0829658203 4.0547548828 4.0649985352 4.0749951172 4.0662011719 4.0522978516 4.0369370117 4.0316723633 4.0531103516 4.0592275391 4.0536440430 4.0545788574 4.0540932617 4.0377785645 4.0316936035 4.0382014160 4.0394394531 4.0412785645 4.0405292969 4.0540017090 4.0383198242 4.0180026855 4.0172709961 4.0254509277 4.0234094238 4.0281770020 4.0331760254 4.0478330078 4.0127985840 4.0153095703 4.0068967285 4.0207875977 4.0336611328 4.0369526367 4.0270793457 4.0218310547 4.0215483398 4.0185993652 4.0307116699 4.0394196777 4.0427971191 4.0346811523 4.0245659180 4.0185603027 4.0228666992 4.0181923828 4.0256845703 4.0308752441 4.0201687012 4.0157548828 4.0079025879 4.0128405762 4.0177441406 4.0204033203 4.0133674316 4.0065698242 3.9997099609 4.0105639648 4.0182355957 4.0179362793 3.9997517090 3.9907468262 3.9971701660 4.0107644043 4.0189477539 4.0053566895 4.0079111328 4.0196850586 4.0258337402 4.0192661133 4.0068762207 3.9945954590 3.9925844727 3.9970676270 4.0001694336 4.0022038574 4.0081613770 4.0006040039 3.9833598633 3.9783837891 3.9834841309 3.9923920898 3.9868039551 3.9853576660 3.9922561035 4.0076281738 3.9941413574 3.9884707031 3.9859360352 3.9874875488 3.9734726563 3.9767128906 3.9770388184 3.9820598145 3.9753474121 3.9706132812 3.9733825684 3.9820212402 3.9851813965 3.9878662109 3.9854050293 3.9798403320 3.9635256348 3.9628288574 3.9633557129 3.9718400879 3.9744819336 3.9772307129 3.9757568359 3.9782426758 3.9833679199 3.9887770996 3.9773808594 3.9693374023 3.9542521973 3.9582246094 3.9611696777 3.9641064453 3.9616306152 3.9587836914 3.9547368164 3.9519624023 3.9487075195 3.9508627930 3.9433811035 3.9486679688 3.9536228027 3.9611738281 3.9562014160 3.9457307129 3.9404060059 3.9399042969 3.9400290527 3.9372414551 3.9437028809 3.9455534668 3.9432480469 3.9533129883 3.9542121582 3.9533269043 3.9491086426 3.9418393555 3.9318254395 3.9382292480 3.9547272949 3.9397705078 3.9324633789 3.9438444824 3.9610036621 3.9487639160 3.9332619629 3.9349255371 3.9449985352 3.9568352051 3.9647871094 3.9647492676 3.9530302734 3.9450993652
4.2099418945 4.2114814453 4.2073027344 4.1970532227 4.1868144531 4.2013632812 4.2057070313 4.2170380859 4.2060278320 4.2074868164 4.1973730469 4.2042089844 4.2201333008 4.2232329102 4.2061313477 4.1980947266 4.1833725586 4.1827729492 4.1757148437 4.1877768555 4.1984731445 4.2054130859 4.1973251953 4.1841210937 4.1745976563 4.1739423828 4.1766606445 4.1964350586 4.1957661133 4.1952446289 4.1629418945 4.1582353516 4.1593691406 4.1585864258 4.1627827148 4.1679780273 4.1748310547 4.1765839844 4.1753134766 4.1470083008 4.1536879883 4.1495273437 4.1437827148 4.1369785156 4.1363754883 4.1308510742 4.1276552734 4.1455419922 4.1377402344 4.1398642578 4.1355537109 4.1352651367 4.1357998047 4.1283334961 4.1229238281 4.1137080078 4.1185180664 4.1251791992 4.1248994141 4.1181284180 4.1030488281 4.1022226563 4.1167431641 4.1047158203 4.1034560547 4.1125893555 4.1105395508 4.1067724609 4.1114643555 4.1120283203 4.1197255859 4.1105219727 4.1042460938 4.0876047363 4.0938498535 4.0935715332 4.0736411133 4.0570261230 4.0553869629 4.0782241211 4.0843764648 4.0984091797 4.0994731445 4.0910043945 4.0881225586 4.0932324219 4.0832224121 4.0749396973 4.0695236816 4.0790048828 4.0900593262 4.0729077148 4.0572534180 4.0473210449 4.0607263184 4.0573476563 4.0578227539 4.0821259766 4.0652995605 4.0832785645 4.0505781250 4.0523554688 4.0575661621 4.0679213867 4.0624235840 4.0610727539 4.0547785645 4.0583283691 4.0572570801 4.0571818848 4.0710056152 4.0641938477 4.0470585938 4.0477807617 4.0485078125 4.0364863281 4.0305541992 4.0355629883 4.0468745117 4.0475905762 4.0439875488 4.0398000488 4.0426538086 4.0512736816 4.0477075195 4.0461545410 4.0405083008 4.0368339844 4.0309223633 4.0467949219 4.0507131348 4.0378654785 4.0300661621 4.0337416992 4.0437885742 4.0478364258 4.0423334961 4.0311931152 4.0374479980 4.0344155273 4.0391938477 4.0314741211 4.0216337891 4.0315317383 4.0313547363 4.0341364746 4.0339501953 4.0348583984 4.0306972656 4.0177331543 4.0134111328 4.0141516113 4.0151423340 4.0184609375 4.0232519531 4.0304187012 4.0260192871 4.0276970215 4.0112585449 4.0081425781 4.0034216309 4.0052624512 4.0068862305 4.0082490234 4.0141774902 4.0089978027 4.0125212402 4.0104665527 4.0215529785 4.0146535645 4.0144680176 4.0068024902 3.9938142090 3.9863618164 3.9906308594 4.0091345215 4.0115969238 4.0070275879 4.0010378418 4.0057700195 4.0110209961 4.0102031250 4.0110407715 4.0139267578 4.0039863281 3.9895568848 3.9763820801 3.9863603516 3.9927480469 3.9896953125 3.9878891602 3.9792590332 3.9824072266 3.9822141113 3.9737863770 3.9727397461 3.9752851563 3.9825402832 3.9917778320 3.9912617188 3.9806396484 3.9767983398 3.9688879395 3.9727060547 3.9702341309 3.9775456543 3.9661777344 3.9551716309 3.9848386230 3.9916142578 3.9976008301 3.9900212402 3.9754240723 3.9666206055 3.9791152344 3.9803298340 3.9702338867 3.9616567383 3.9866667480 3.9815109863 3.9611933594 3.9572524414 3.9792651367 3.9865422363 3.9917705078 3.9780283203 3.9989978027 3.9787111816 3.9712243652
