3.0486589355 3.0476689453 3.0485312500 3.0468181152 3.0416752930 3.0411308594 3.0458601074 3.0506203613 3.0489560547 3.0413330078 3.0400666504 3.0409650879 3.0544450684 3.0518508301 3.0468955078 3.0416066895 3.0428330078 3.0428937988 3.0492736816 3.0574465332 3.0556943359 3.0534125977 3.0551066895 3.0600361328 3.0688576660 3.0618422852 3.0528942871 3.0485275879 3.0595432129 3.0622932129 3.0611657715 3.0531784668 3.0568356934 3.0542753906 3.0556025391 3.0613269043 3.0644704590 3.0602353516 3.0554482422 3.0556098633 3.0507072754 3.0482563477 3.0591877441 3.0661330566 3.0689509277 3.0613798828 3.0637075195 3.0652739258 3.0635312500 3.0576718750 3.0533085938 3.0500019531 3.0537946777 3.0454414063 3.0437045898 3.0432495117 3.0486096191 3.0464270020 3.0482426758 3.0530007324 3.0574101563 3.0587473145 3.0614079590 3.0670075684 3.0617019043 3.0664345703 3.0653405762 3.0697548828 3.0648618164 3.0714382324 3.0703098145 3.0686926270 3.0504682617 3.0499882813 3.0552343750 3.0586579590 3.0598679199 3.0633161621 3.0653889160 3.0694194336 3.0695913086 3.0694560547 3.0597915039 3.0592583008 3.0605078125 3.0615786133 3.0667893066 3.0724067383 3.0776213379 3.0738696289 3.0643303223 3.0608066406 3.0598581543 3.0602189941 3.0637761230 3.0603430176 3.0587556152 3.0548093262 3.0533579102 3.0553376465 3.0609995117 3.0675524902 3.0689909668 3.0675466309 3.0668347168 3.0618310547 3.0628161621 3.0608874512 3.0654160156 3.0686613770 3.0725434570 3.0696418457 3.0647094727 3.0607678223 3.0595856934 3.0615751953 3.0595886230 3.0606818848 3.0587143555 3.0600756836 3.0614528809 3.0654741211 3.0656015625 3.0726232910 3.0781062012 3.0711474609 3.0688041992 3.0664855957 3.0690795898 3.0702282715 3.0629941406 3.0574296875 3.0554819336 3.0613479004 3.0646696777 3.0647941895 3.0660048828 3.0712849121 3.0742001953 3.0661328125 3.0583234863 3.0555773926 3.0599262695 3.0560422363 3.0582355957 3.0638937988 3.0679155273 3.0662663574 3.0682070313 3.0736381836 3.0739545898 3.0651921387 3.0617292480 3.0598500977 3.0647536621 3.0611254883 3.0647114258 3.0671437988 3.0665480957 3.0602849121 3.0487575684 3.0513078613 3.0542182617 3.0630637207 3.0626066895 3.0650263672 3.0633498535 3.0683703613 3.0669777832 3.0667531738 3.0618210449 3.0630285645 3.0656420898 3.0733801270 3.0709570312 3.0725715332 3.0670917969 3.0696298828 3.0657539062 3.0642294922 3.0646059570 3.0649648437 3.0664104004 3.0626208496 3.0612473145 3.0628110352 3.0646403809 3.0664562988 3.0657709961 3.0696457520 3.0672722168 3.0625681152 3.0545825195 3.0586618652 3.0641237793 3.0708339844 3.0717678223 3.0726213379 3.0722983398 3.0727607422 3.0734753418 3.0748754883 3.0710895996 3.0625971680 3.0653090820 3.0719204102 3.0760935059 3.0741713867 3.0730620117 3.0734189453 3.0751169434 3.0788784180 3.0809343262 3.0763652344 3.0728840332 3.0729797363 3.0685449219 3.0771958008 3.0859506836 3.0856188965 3.0776821289 3.0785964355 3.0782250977 3.0795153809 3.0735795898 3.0794797363 3.0798835449 3.0784067383 3.0753498535
3.0522143555 3.0492141113 3.0480827637 3.0485122070 3.0526523438 3.0535915527 3.0592463379 3.0589956055 3.0675949707 3.0618913574 3.0615061035 3.0629033203 3.0674738770 3.0669973145 3.0602385254 3.0619030762 3.0570732422 3.0571594238 3.0571044922 3.0603464355 3.0647275391 3.0671157227 3.0701928711 3.0711037598 3.0765832520 3.0709072266 3.0651962891 3.0584938965 3.0660935059 3.0686743164 3.0723876953 3.0714626465 3.0723571777 3.0704772949 3.0695939941 3.0708479004 3.0812143555 3.0715927734 3.0671657715 3.0621240234 3.0622297363 3.0587912598 3.0672041016 3.0741638184 3.0764797363 3.0773586426 3.0761013184 3.0755676270 3.0676286621 3.0584157715 3.0587934570 3.0667250977 3.0711967773 3.0646362305 3.0640781250 3.0683640137 3.0702695313 3.0640622559 3.0604653320 3.0671826172 3.0695510254 3.0739616699 3.0782612305 3.0778728027 3.0789736328 3.0781394043 3.0797299805 3.0771972656 3.0774716797 3.0786757812 3.0768581543 3.0731059570 3.0672238770 3.0709355469 3.0720986328 3.0760981445 3.0697441406 3.0745688477 3.0791362305 3.0859235840 3.0821826172 3.0785727539 3.0763334961 3.0785239258 3.0802414551 3.0791862793 3.0762265625 3.0788793945 3.0795039063 3.0789460449 3.0784443359 3.0770068359 3.0729509277 3.0694770508 3.0715495605 3.0735200195 3.0706296387 3.0650190430 3.0622502441 3.0640947266 3.0722094727 3.0746071777 3.0722639160 3.0699760742 3.0754960937 3.0797136230 3.0772993164 3.0710239258 3.0769313965 3.0779516602 3.0774860840 3.0701279297 3.0706101074 3.0702675781 3.0725297852 3.0707700195 3.0689030762 3.0642907715 3.0626010742 3.0679641113 3.0756911621 3.0819194336 3.0783779297 3.0837277832 3.0870432129 3.0863620605 3.0764414062 3.0751989746 3.0763764648 3.0781057129 3.0731140137 3.0690080566 3.0738764648 3.0765021973 3.0812995605 3.0772126465 3.0846479492 3.0823779297 3.0845341797 3.0789345703 3.0737580566 3.0723554688 3.0731887207 3.0724653320 3.0704655762 3.0705651855 3.0744089355 3.0726027832 3.0786958008 3.0802932129 3.0851284180 3.0798598633 3.0771713867 3.0779765625 3.0805534668 3.0792416992 3.0801611328 3.0863654785 3.0847834473 3.0765146484 3.0736301270 3.0761398926 3.0787949219 3.0768598633 3.0733862305 3.0700549316 3.0688896484 3.0756164551 3.0830925293 3.0830803223 3.0749504395 3.0725751953 3.0758425293 3.0879946289 3.0873046875 3.0875332031 3.0823127441 3.0802634277 3.0771123047 3.0764760742 3.0796127930 3.0832456055 3.0814509277 3.0795603027 3.0739907227 3.0739582520 3.0768000488 3.0804589844 3.0864514160 3.0840183105 3.0794641113 3.0748820801 3.0714531250 3.0709509277 3.0810209961 3.0872189941 3.0861433105 3.0828444824 3.0847819824 3.0837636719 3.0872204590 3.0873530273 3.0854206543 3.0808474121 3.0779821777 3.0824687500 3.0872456055 3.0890292969 3.0925451660 3.0872343750 3.0853510742 3.0796992188 3.0857604980 3.0859658203 3.0847739258 3.0868847656 3.0866171875 3.0962348633 3.0959838867 3.0947880859 3.0873911133 3.0910446777 3.0968039551 3.0944282227 3.0885446777 3.0905944824 3.0926403809 3.0960891113 3.0949135742
3.0607233887 3.0551992187 3.0501772461 3.0548024902 3.0669777832 3.0650761719 3.0665087891 3.0734174805 3.0752475586 3.0748732910 3.0773837891 3.0806479492 3.0776733398 3.0736271973 3.0722753906 3.0736313477 3.0764270020 3.0775659180 3.0695251465 3.0699853516 3.0730454102 3.0812731934 3.0806306152 3.0769057617 3.0774709473 3.0769270020 3.0764831543 3.0702966309 3.0759621582 3.0809887695 3.0901953125 3.0878142090 3.0828291016 3.0788295898 3.0783811035 3.0789255371 3.0814904785 3.0777082520 3.0751496582 3.0753085937 3.0816418457 3.0811176758 3.0775727539 3.0815175781 3.0882509766 3.0887026367 3.0865383301 3.0824145508 3.0734365234 3.0711530762 3.0733874512 3.0827375488 3.0818640137 3.0807302246 3.0800986328 3.0831281738 3.0806496582 3.0781132813 3.0827160645 3.0839223633 3.0825908203 3.0830793457 3.0872451172 3.0908876953 3.0905849609 3.0899038086 3.0902106934 3.0880629883 3.0851643066 3.0845334473 3.0791411133 3.0786015625 3.0802956543 3.0793706055 3.0851906738 3.0877246094 3.0859108887 3.0877770996 3.0923684082 3.0938161621 3.0906728516 3.0890725098 3.0941950684 3.0970776367 3.0954919434 3.0896296387 3.0877700195 3.0859450684 3.0839609375 3.0823444824 3.0867536621 3.0883437500 3.0813796387 3.0792705078 3.0856423340 3.0843093262 3.0852871094 3.0815312500 3.0790791016 3.0769560547 3.0804899902 3.0809616699 3.0780959473 3.0767951660 3.0883554688 3.0907385254 3.0886628418 3.0825895996 3.0882585449 3.0880046387 3.0873449707 3.0843681641 3.0879775391 3.0872009277 3.0876484375 3.0835976563 3.0814963379 3.0756262207 3.0737265625 3.0787548828 3.0861213379 3.0938959961 3.0917832031 3.0944040527 3.0889953613 3.0929526367 3.0872871094 3.0910664062 3.0895151367 3.0916491699 3.0837685547 3.0819736328 3.0865524902 3.0873774414 3.0900871582 3.0844167480 3.0910798340 3.0914838867 3.0948081055 3.0919467773 3.0912021484 3.0891333008 3.0860776367 3.0880979004 3.0856630859 3.0842531738 3.0826000977 3.0847431641 3.0876479492 3.0911574707 3.0928208008 3.0875729980 3.0872546387 3.0860856934 3.0905825195 3.0919753418 3.0973842773 3.0999748535 3.0949504395 3.0911135254 3.0944345703 3.1025256348 3.0993461914 3.0949602051 3.0859182129 3.0810358887 3.0762460938 3.0830974121 3.0904284668 3.0904208984 3.0826838379 3.0800671387 3.0825988770 3.0943708496 3.0939428711 3.0989458008 3.0948210449 3.0910244141 3.0862985840 3.0875983887 3.0926872559 3.0948327637 3.0937482910 3.0926362305 3.0887812500 3.0904208984 3.0906584473 3.0979829102 3.0973237305 3.0940739746 3.0897202148 3.0878376465 3.0859038086 3.0857287598 3.0909816895 3.0976606445 3.1012062988 3.0982248535 3.0993198242 3.0951491699 3.0912416992 3.0931892090 3.0925764160 3.0928725586 3.0910395508 3.0942397461 3.0952216797 3.1008010254 3.1048315430 3.1050498047 3.1044772949 3.1010065918 3.0976604004 3.0965185547 3.0954016113 3.0949848633 3.0975397949 3.1068464355 3.1000026855 3.1027521973 3.1024179688 3.1086584473 3.1078645020 3.1034538574 3.1000961914 3.0996623535 3.1037004395 3.1032656250 3.1026271973
3.0786750488 3.0682143555 3.0636398926 3.0833093262 3.0701992188 3.0734843750 3.0839260254 3.0990166016 3.0977851563 3.0921647949 3.0970703125 3.0942561035 3.0867624512 3.0819760742 3.0854963379 3.0934577637 3.0956350098 3.0921430664 3.0881672363 3.0850629883 3.0927236328 3.1019755859 3.1012182617 3.0960615234 3.0894921875 3.0961457520 3.0942468262 3.0857685547 3.0925336914 3.0925461426 3.0973164063 3.0934648438 3.0920844727 3.0889724121 3.0927207031 3.0885461426 3.0831938477 3.0785825195 3.0853112793 3.0904926758 3.0981232910 3.0927436523 3.0927133789 3.0959572754 3.0990759277 3.0962441406 3.0979357910 3.0967614746 3.0951086426 3.0906611328 3.0902519531 3.0970046387 3.0950375977 3.0967272949 3.0945444336 3.0993090820 3.0962343750 3.0976123047 3.0969042969 3.0983352051 3.0943217773 3.0970996094 3.1023828125 3.1045695801 3.0995366211 3.0986547852 3.0984672852 3.0986359863 3.0950358887 3.0956049805 3.0926276855 3.0960039062 3.0952878418 3.0960507813 3.0964284668 3.1017919922 3.1039309082 3.1046350098 3.1104077148 3.1076826172 3.1063896484 3.1040563965 3.1065070801 3.1049375000 3.1073073730 3.1042666016 3.1044797363 3.1016108398 3.1023310547 3.1025729980 3.1075351562 3.1015400391 3.0998679199 3.0982153320 3.0987209473 3.0980661621 3.0969233398 3.0983574219 3.0983312988 3.0975163574 3.0991154785 3.0944016113 3.0936799316 3.0995949707 3.1072238770 3.1051955566 3.1032644043 3.1005822754 3.1031914063 3.0999768066 3.1008874512 3.0999858398 3.1067985840 3.1038005371 3.1057395020 3.1010610352 3.0967680664 3.0878854980 3.0914699707 3.0970297852 3.1027026367 3.1059199219 3.1060119629 3.1073859863 3.0995488281 3.1036425781 3.1015336914 3.1079128418 3.1023276367 3.1042404785 3.0985856934 3.1019907227 3.1003415527 3.0995288086 3.0954194336 3.0914248047 3.0988679199 3.1028825684 3.1098234863 3.1064409180 3.1107558594 3.1058422852 3.1036389160 3.1036293945 3.1039987793 3.0997114258 3.0968366699 3.0965429688 3.1050007324 3.1093039551 3.1105085449 3.1046997070 3.1018608398 3.0984030762 3.0978120117 3.1021279297 3.1066831055 3.1108835449 3.1076818848 3.1083703613 3.1149016113 3.1151572266 3.1137822266 3.1054553223 3.0987197266 3.0962802734 3.0968159180 3.1003742676 3.0996157227 3.0969348145 3.0978835449 3.0971787109 3.1045993652 3.1075988770 3.1074077148 3.1079836426 3.1045766602 3.1001503906 3.0962377930 3.0988049316 3.1034191895 3.1051098633 3.1056552734 3.1056708984 3.1029389648 3.1074331055 3.1090788574 3.1115158691 3.1112143555 3.1071984863 3.1046418457 3.1036262207 3.1017102051 3.1002985840 3.1063906250 3.1088022461 3.1092978516 3.1063618164 3.1090148926 3.1094033203 3.1090964355 3.1093823242 3.1100451660 3.1120651855 3.1089084473 3.1083833008 3.1076232910 3.1104438477 3.1148745117 3.1141772461 3.1155490723 3.1206486816 3.1163139648 3.1105000000 3.1051533203 3.1103549805 3.1102954102 3.1156823730 3.1139814453 3.1138317871 3.1144528809 3.1161450195 3.1119191895 3.1113786621 3.1108884277 3.1156552734 3.1176623535 3.1109291992 3.1104355469
3.1101054688 3.0967407227 3.0953161621 3.0979824219 3.0854736328 3.0835517578 3.1019440918 3.1165878906 3.1126599121 3.1106718750 3.1057084961 3.1021586914 3.0870166016 3.0858916016 3.0993779297 3.1025852051 3.1032993164 3.1018769531 3.1037094727 3.1092778320 3.1137180176 3.1196062012 3.1130473633 3.1090227051 3.0986491699 3.1000449219 3.0992758789 3.1006711426 3.1014318848 3.1041665039 3.1019042969 3.0968349609 3.0959497070 3.0967639160 3.1003747559 3.0970871582 3.0938212891 3.0904794922 3.0928298340 3.1012270508 3.1008383789 3.1040778809 3.1014416504 3.1049123535 3.1027050781 3.1038864746 3.1063959961 3.1114270020 3.1097473145 3.1068676758 3.1020744629 3.1031855469 3.1031523438 3.1001464844 3.0988188477 3.1082592773 3.1099025879 3.1059760742 3.1066679688 3.1061250000 3.1063298340 3.1095100098 3.1121284180 3.1126750488 3.1080922852 3.1067563477 3.1034643555 3.1043391113 3.1015737305 3.1034506836 3.1045939941 3.1107260742 3.1107871094 3.1087299805 3.1082382813 3.1087656250 3.1116228027 3.1141188965 3.1116145020 3.1144880371 3.1158413086 3.1146696777 3.1132512207 3.1124123535 3.1195000000 3.1214020996 3.1208457031 3.1147817383 3.1168696289 3.1176787109 3.1161591797 3.1149760742 3.1119765625 3.1188029785 3.1114262695 3.1094990234 3.1114465332 3.1149797363 3.1169921875 3.1172600098 3.1148034668 3.1107993164 3.1095593262 3.1152009277 3.1217502441 3.1183928223 3.1143745117 3.1122170410 3.1116865234 3.1126186523 3.1143652344 3.1134501953 3.1152719727 3.1152763672 3.1174423828 3.1160190430 3.1103283691 3.1069914551 3.1077331543 3.1109814453 3.1062631836 3.1072438965 3.1111108398 3.1174353027 3.1148867188 3.1175197754 3.1150197754 3.1219633789 3.1189313965 3.1197919922 3.1157021484 3.1149621582 3.1100217285 3.1091633301 3.1079431152 3.1059897461 3.1129335938 3.1102387695 3.1172893066 3.1112563477 3.1168603516 3.1174489746 3.1162316895 3.1133666992 3.1138054199 3.1148144531 3.1114626465 3.1092192383 3.1164614258 3.1175544434 3.1222946777 3.1121108398 3.1117961426 3.1069282227 3.1053413086 3.1060754395 3.1080146484 3.1153354492 3.1184821777 3.1233022461 3.1224658203 3.1202529297 3.1158776855 3.1128891602 3.1095744629 3.1118691406 3.1148012695 3.1163427734 3.1126813965 3.1109475098 3.1157207031 3.1156213379 3.1187214355 3.1156850586 3.1132500000 3.1134804688 3.1117849121 3.1114711914 3.1105952148 3.1129792480 3.1173630371 3.1160554199 3.1115727539 3.1112895508 3.1155502930 3.1209169922 3.1182558594 3.1171528320 3.1164130859 3.1165935059 3.1187927246 3.1197280273 3.1196992188 3.1145046387 3.1195344238 3.1212954102 3.1229145508 3.1158144531 3.1184851074 3.1204057617 3.1212197266 3.1198505859 3.1187958984 3.1210712891 3.1197075195 3.1180378418 3.1145646973 3.1176721191 3.1261428223 3.1300625000 3.1282629395 3.1282375488 3.1286494141 3.1221330566 3.1161159668 3.1187626953 3.1225168457 3.1278642578 3.1294411621 3.1291337891 3.1310073242 3.1264702148 3.1223803711 3.1167402344 3.1206372070 3.1269216309 3.1280622559 3.1277363281 3.1233439941
3.1136665039 3.1151357422 3.1155693359 3.1069743652 3.1011337891 3.1015576172 3.1101733398 3.1200512695 3.1204257813 3.1183505859 3.1105917969 3.0974873047 3.0921047363 3.1008906250 3.1081203613 3.1132963867 3.1126711426 3.1094233398 3.1106201172 3.1156733398 3.1201608887 3.1219677734 3.1192363281 3.1182536621 3.1158261719 3.1190534668 3.1175788574 3.1168608398 3.1127973633 3.1138078613 3.1130563965 3.1100026855 3.1059035645 3.1097202148 3.1092612305 3.1097766113 3.1106860352 3.1108837891 3.1104362793 3.1071469727 3.1089526367 3.1100622559 3.1139726563 3.1164035645 3.1166145020 3.1179799805 3.1220825195 3.1245622559 3.1193527832 3.1184814453 3.1197500000 3.1238195801 3.1182343750 3.1099152832 3.1132663574 3.1230585938 3.1256396484 3.1193610840 3.1142573242 3.1182617187 3.1199294434 3.1280100098 3.1262436523 3.1267822266 3.1216772461 3.1214020996 3.1190239258 3.1224567871 3.1203098145 3.1212048340 3.1244685059 3.1311142578 3.1281208496 3.1283154297 3.1280537109 3.1302426758 3.1330212402 3.1296311035 3.1244055176 3.1191086426 3.1283100586 3.1288525391 3.1253317871 3.1260942383 3.1332507324 3.1346132813 3.1311542969 3.1289340820 3.1350485840 3.1369562988 3.1325307617 3.1301960449 3.1313371582 3.1325385742 3.1278505859 3.1239821777 3.1216901855 3.1271518555 3.1311352539 3.1311625977 3.1287475586 3.1220874023 3.1220646973 3.1261950684 3.1328271484 3.1313090820 3.1280532227 3.1276323242 3.1261174316 3.1270581055 3.1210083008 3.1184636230 3.1219414062 3.1270515137 3.1329897461 3.1305520020 3.1265944824 3.1248505859 3.1281391602 3.1293068848 3.1250424805 3.1223024902 3.1230441895 3.1315097656 3.1317453613 3.1347463379 3.1301838379 3.1344929199 3.1346604004 3.1341772461 3.1231511230 3.1236428223 3.1221635742 3.1256962891 3.1259074707 3.1302348633 3.1287702637 3.1231018066 3.1248288574 3.1196354980 3.1273078613 3.1300063477 3.1345830078 3.1280461426 3.1245988770 3.1271755371 3.1238754883 3.1205788574 3.1239978027 3.1269667969 3.1319260254 3.1259006348 3.1260156250 3.1229814453 3.1218103027 3.1194719238 3.1205100098 3.1304094238 3.1327221680 3.1369658203 3.1340610352 3.1303574219 3.1245756836 3.1234875488 3.1225095215 3.1267951660 3.1295068359 3.1315061035 3.1318522949 3.1302519531 3.1373110352 3.1368825684 3.1424331055 3.1341762695 3.1282634277 3.1236442871 3.1250007324 3.1304272461 3.1301132812 3.1329294434 3.1340847168 3.1298862305 3.1227600098 3.1261691895 3.1288415527 3.1316713867 3.1248496094 3.1268503418 3.1307968750 3.1349702148 3.1371423340 3.1389982910 3.1359594727 3.1362802734 3.1389555664 3.1367099609 3.1329504395 3.1270349121 3.1289184570 3.1281542969 3.1276396484 3.1314521484 3.1362683105 3.1360363770 3.1348129883 3.1302915039 3.1277556152 3.1309816895 3.1403066406 3.1396889648 3.1344572754 3.1330625000 3.1350092773 3.1384252930 3.1318654785 3.1307092285 3.1331403809 3.1403146973 3.1450351563 3.1423640137 3.1401284180 3.1363408203 3.1373327637 3.1392011719 3.1385576172 3.1339733887 3.1346293945 3.1394567871 3.1389184570
3.1248278809 3.1260471191 3.1259172363 3.1346701660 3.1167673340 3.1128994141 3.1187346191 3.1187770996 3.1205222168 3.1195952148 3.1144353027 3.1063029785 3.1008989258 3.1078178711 3.1163212891 3.1196137695 3.1241655273 3.1239140625 3.1255195313 3.1246142578 3.1261708984 3.1252585449 3.1262292480 3.1272104492 3.1244016113 3.1263479004 3.1265297852 3.1211682129 3.1179497070 3.1237697754 3.1240761719 3.1253041992 3.1188298340 3.1189797363 3.1194738770 3.1250837402 3.1270356445 3.1281860352 3.1246130371 3.1215771484 3.1201679688 3.1263706055 3.1242260742 3.1309455566 3.1287543945 3.1333854980 3.1290510254 3.1321616211 3.1296279297 3.1332592773 3.1395087891 3.1398481445 3.1357810059 3.1278391113 3.1267644043 3.1285512695 3.1325585938 3.1290852051 3.1279645996 3.1317082520 3.1377163086 3.1401418457 3.1358059082 3.1341811523 3.1330971680 3.1360063477 3.1391250000 3.1423444824 3.1371513672 3.1346164551 3.1376242676 3.1409987793 3.1370246582 3.1364777832 3.1385334473 3.1459738770 3.1472827148 3.1451469727 3.1352917480 3.1322644043 3.1330102539 3.1388388672 3.1404775391 3.1410769043 3.1414848633 3.1376330566 3.1371689453 3.1378339844 3.1426982422 3.1425764160 3.1362092285 3.1406125488 3.1404760742 3.1454387207 3.1380126953 3.1407121582 3.1397016602 3.1426740723 3.1432590332 3.1449694824 3.1430529785 3.1400441895 3.1364670410 3.1393908691 3.1381862793 3.1375698242 3.1322651367 3.1381843262 3.1407175293 3.1387639160 3.1279304199 3.1281623535 3.1333474121 3.1392744141 3.1430100098 3.1418103027 3.1392268066 3.1377087402 3.1368977051 3.1367561035 3.1331640625 3.1340187988 3.1331755371 3.1389191895 3.1417199707 3.1423232422 3.1358605957 3.1404472656 3.1456250000 3.1428295898 3.1303537598 3.1292934570 3.1340573730 3.1426916504 3.1424873047 3.1439335937 3.1444082031 3.1409995117 3.1395366211 3.1374548340 3.1368093262 3.1408486328 3.1440563965 3.1446289062 3.1381696777 3.1393166504 3.1378752441 3.1320712891 3.1327558594 3.1364189453 3.1413742676 3.1347338867 3.1328625488 3.1354189453 3.1364802246 3.1385766602 3.1380932617 3.1452707520 3.1466928711 3.1492202148 3.1462900391 3.1401809082 3.1335065918 3.1373327637 3.1366049805 3.1369975586 3.1362197266 3.1375461426 3.1414008789 3.1390932617 3.1452016602 3.1444594727 3.1451721191 3.1435505371 3.1381933594 3.1403674316 3.1400771484 3.1449438477 3.1445385742 3.1458474121 3.1410249023 3.1364792480 3.1326088867 3.1377973633 3.1358178711 3.1346315918 3.1315598145 3.1361484375 3.1403276367 3.1470126953 3.1478269043 3.1484235840 3.1446386719 3.1471147461 3.1482507324 3.1470764160 3.1473908691 3.1453063965 3.1441145020 3.1370241699 3.1362739258 3.1385446777 3.1417434082 3.1449489746 3.1494201660 3.1465078125 3.1454365234 3.1471538086 3.1520842285 3.1510061035 3.1473269043 3.1467482910 3.1535463867 3.1532756348 3.1462375488 3.1401022949 3.1385788574 3.1464531250 3.1556730957 3.1550727539 3.1496420898 3.1457475586 3.1519260254 3.1556315918 3.1524919434 3.1432617188 3.1407375488 3.1484694824 3.1523894043
3.1404995117 3.1383735352 3.1308725586 3.1312253418 3.1343657227 3.1195039062 3.1263791504 3.1302529297 3.1293154297 3.1308298340 3.1288806152 3.1239938965 3.1166523438 3.1178493652 3.1250097656 3.1336728516 3.1377026367 3.1380969238 3.1351655273 3.1306022949 3.1320986328 3.1338366699 3.1377192383 3.1366611328 3.1384238281 3.1387470703 3.1394833984 3.1318317871 3.1283295898 3.1298249512 3.1363986816 3.1414912109 3.1358354492 3.1319919434 3.1335676270 3.1405427246 3.1401242676 3.1355104980 3.1377355957 3.1348352051 3.1364602051 3.1390463867 3.1448635254 3.1446020508 3.1451025391 3.1447758789 3.1432956543 3.1410708008 3.1436940918 3.1528964844 3.1550688477 3.1535720215 3.1513298340 3.1468312988 3.1454189453 3.1447434082 3.1454899902 3.1413342285 3.1381435547 3.1453432617 3.1518435059 3.1549716797 3.1514262695 3.1494438477 3.1510939941 3.1527507324 3.1559675293 3.1556025391 3.1547136230 3.1537414551 3.1535190430 3.1514890137 3.1475354004 3.1498249512 3.1523969727 3.1585686035 3.1664084473 3.1648649902 3.1596364746 3.1522221680 3.1526372070 3.1572194824 3.1594899902 3.1537375488 3.1482790527 3.1435266113 3.1432272949 3.1473271484 3.1507241211 3.1521428223 3.1486679687 3.1517614746 3.1537634277 3.1553974609 3.1537338867 3.1596687012 3.1582111816 3.1525156250 3.1495080566 3.1501152344 3.1502312012 3.1453652344 3.1470942383 3.1563188477 3.1576679688 3.1525717773 3.1444497070 3.1530551758 3.1573200684 3.1537705078 3.1425854492 3.1453342285 3.1527988281 3.1566938477 3.1514038086 3.1478613281 3.1433591309 3.1446162109 3.1484577637 3.1518103027 3.1544257813 3.1513100586 3.1456506348 3.1472521973 3.1516508789 3.1558706055 3.1511967773 3.1498803711 3.1519594727 3.1502832031 3.1441833496 3.1444335938 3.1511767578 3.1580981445 3.1544821777 3.1546743164 3.1514338379 3.1564223633 3.1571352539 3.1575495605 3.1542150879 3.1559296875 3.1582177734 3.1593540039 3.1534416504 3.1496037598 3.1464589844 3.1444338379 3.1479162598 3.1543776855 3.1559362793 3.1540803223 3.1509023437 3.1524616699 3.1524482422 3.1522868652 3.1535554199 3.1552604980 3.1574799805 3.1632209473 3.1617082520 3.1558945312 3.1495693359 3.1542673340 3.1543459473 3.1507348633 3.1517307129 3.1544663086 3.1590192871 3.1550332031 3.1572954102 3.1536472168 3.1532783203 3.1562609863 3.1594477539 3.1574274902 3.1543566895 3.1568999023 3.1596022949 3.1602653809 3.1524760742 3.1492082520 3.1496286621 3.1512387695 3.1475500488 3.1434716797 3.1434816895 3.1455424805 3.1500261230 3.1561940918 3.1580727539 3.1563190918 3.1541010742 3.1588837891 3.1566345215 3.1587182617 3.1621794434 3.1601938477 3.1514990234 3.1465585938 3.1491533203 3.1513566895 3.1540153809 3.1586298828 3.1668898926 3.1662185059 3.1633974609 3.1615971680 3.1645512695 3.1616140137 3.1599445801 3.1606914063 3.1683852539 3.1679882812 3.1628229980 3.1593127441 3.1507788086 3.1562429199 3.1565095215 3.1641945801 3.1568891602 3.1552551270 3.1631462402 3.1642941895 3.1653012695 3.1535312500 3.1510529785 3.1509350586 3.1588439941
3.1595051270 3.1501750488 3.1419111328 3.1345209961 3.1406579590 3.1354121094 3.1363654785 3.1396269531 3.1434357910 3.1368698730 3.1367060547 3.1355478516 3.1386979980 3.1338627930 3.1294645996 3.1309423828 3.1390517578 3.1401867676 3.1430068359 3.1380078125 3.1431242676 3.1478937988 3.1498039551 3.1429162598 3.1435773926 3.1442709961 3.1445227051 3.1432497559 3.1441091309 3.1420891113 3.1449028320 3.1493850098 3.1509326172 3.1503232422 3.1507570801 3.1502041016 3.1460327148 3.1429916992 3.1458889160 3.1483120117 3.1491313477 3.1567795410 3.1558171387 3.1550227051 3.1483352051 3.1568208008 3.1534909668 3.1545244141 3.1562319336 3.1634819336 3.1598666992 3.1565566406 3.1563769531 3.1577404785 3.1595375977 3.1570898438 3.1566745605 3.1549714355 3.1515441895 3.1541904297 3.1562480469 3.1639196777 3.1585097656 3.1606137695 3.1597197266 3.1637802734 3.1619816895 3.1592626953 3.1597807617 3.1657067871 3.1635490723 3.1579248047 3.1540524902 3.1570600586 3.1590383301 3.1582932129 3.1648295898 3.1663825684 3.1688615723 3.1653144531 3.1645895996 3.1662614746 3.1635805664 3.1596350098 3.1570874023 3.1561342773 3.1582419434 3.1622663574 3.1631242676 3.1613388672 3.1606394043 3.1644057617 3.1622685547 3.1648283691 3.1631052246 3.1719245605 3.1664099121 3.1599121094 3.1543876953 3.1593032227 3.1608825684 3.1593581543 3.1607475586 3.1702680664 3.1694528809 3.1616250000 3.1511608887 3.1581894531 3.1643366699 3.1650063477 3.1598847656 3.1627160645 3.1651149902 3.1643227539 3.1557846680 3.1516972656 3.1498559570 3.1535217285 3.1590651855 3.1610954590 3.1612004395 3.1575900879 3.1538361816 3.1575883789 3.1625659180 3.1658056641 3.1608698730 3.1589184570 3.1609484863 3.1607150879 3.1565371094 3.1604265137 3.1620891113 3.1678820801 3.1591303711 3.1587749023 3.1592907715 3.1678198242 3.1706887207 3.1709626465 3.1685234375 3.1710974121 3.1686743164 3.1688981934 3.1657485352 3.1618811035 3.1585322266 3.1583059082 3.1638012695 3.1699562988 3.1696975098 3.1659846191 3.1608159180 3.1618457031 3.1641040039 3.1650793457 3.1652971191 3.1625600586 3.1646704102 3.1661232910 3.1684506836 3.1636428223 3.1612905273 3.1645969238 3.1654289551 3.1635153809 3.1643552246 3.1651049805 3.1717290039 3.1699831543 3.1686381836 3.1612951660 3.1596479492 3.1675651855 3.1715422363 3.1755825195 3.1700681152 3.1695119629 3.1671970215 3.1662368164 3.1609714355 3.1631611328 3.1644511719 3.1659687500 3.1592307129 3.1558229980 3.1566660156 3.1563791504 3.1618752441 3.1661457520 3.1708220215 3.1737749023 3.1687490234 3.1643063965 3.1606069336 3.1687990723 3.1745124512 3.1709296875 3.1621574707 3.1611418457 3.1637263184 3.1623999023 3.1643613281 3.1688217773 3.1744455566 3.1713327637 3.1690124512 3.1652502441 3.1700146484 3.1718940430 3.1733654785 3.1730107422 3.1776452637 3.1801079102 3.1793691406 3.1784169922 3.1692487793 3.1695251465 3.1660197754 3.1712038574 3.1654528809 3.1647434082 3.1686081543 3.1688376465 3.1708269043 3.1630187988 3.1633850098 3.1600954590 3.1665949707
3.1611931152 3.1593012695 3.1580668945 3.1551667480 3.1464645996 3.1473205566 3.1500546875 3.1494147949 3.1605532227 3.1576225586 3.1546948242 3.1547556152 3.1640742188 3.1557944336 3.1486621094 3.1438674316 3.1513127441 3.1531013184 3.1531784668 3.1504348145 3.1541765137 3.1598991699 3.1591523438 3.1566096191 3.1565524902 3.1599907227 3.1583771973 3.1619201660 3.1599555664 3.1578605957 3.1589816895 3.1638798828 3.1645842285 3.1631450195 3.1637619629 3.1592456055 3.1532023926 3.1525617676 3.1572001953 3.1581245117 3.1594362793 3.1644824219 3.1655441895 3.1686120605 3.1645852051 3.1689489746 3.1714584961 3.1710161133 3.1719809570 3.1725183105 3.1707712402 3.1676430664 3.1673395996 3.1681455078 3.1720725098 3.1716518555 3.1688061523 3.1701210938 3.1651982422 3.1681694336 3.1672893066 3.1756762695 3.1743391113 3.1712414551 3.1743090820 3.1753591309 3.1740073242 3.1694841309 3.1738708496 3.1801174316 3.1805166016 3.1737773437 3.1649333496 3.1682050781 3.1716218262 3.1737341309 3.1773330078 3.1761994629 3.1813449707 3.1770939941 3.1785888672 3.1744013672 3.1723713379 3.1719323730 3.1751098633 3.1764335938 3.1737580566 3.1747343750 3.1757202148 3.1755432129 3.1718627930 3.1715927734 3.1704926758 3.1730920410 3.1784199219 3.1832253418 3.1782416992 3.1669560547 3.1654860840 3.1653676758 3.1684101563 3.1659099121 3.1744333496 3.1827092285 3.1821987305 3.1759316406 3.1696877441 3.1745805664 3.1764211426 3.1774858398 3.1757797852 3.1789980469 3.1811328125 3.1752060547 3.1666638184 3.1624714355 3.1650642090 3.1736188965 3.1822661133 3.1822307129 3.1801447754 3.1737902832 3.1716020508 3.1745556641 3.1823886719 3.1842863770 3.1797524414 3.1784743652 3.1750793457 3.1767524414 3.1722358398 3.1728649902 3.1718356934 3.1730632324 3.1718596191 3.1700839844 3.1719274902 3.1763149414 3.1800297852 3.1804958496 3.1802368164 3.1805148926 3.1782380371 3.1797187500 3.1758820801 3.1758823242 3.1758710938 3.1785773926 3.1794125977 3.1814667969 3.1813132324 3.1799819336 3.1754091797 3.1728840332 3.1732939453 3.1743105469 3.1767009277 3.1735881348 3.1741179199 3.1754501953 3.1783466797 3.1778969727 3.1800668945 3.1812714844 3.1830625000 3.1803828125 3.1839399414 3.1851318359 3.1901586914 3.1903737793 3.1862492676 3.1830258789 3.1818986816 3.1849191895 3.1865104980 3.1838510742 3.1829228516 3.1804318848 3.1799892578 3.1798525391 3.1774787598 3.1827653809 3.1807709961 3.1835974121 3.1799287109 3.1734475098 3.1694633789 3.1692709961 3.1752939453 3.1787717285 3.1838430176 3.1862070312 3.1850686035 3.1825002441 3.1801975098 3.1845451660 3.1878757324 3.1820415039 3.1798613281 3.1784660645 3.1787326660 3.1804079590 3.1802531738 3.1818395996 3.1804365234 3.1769909668 3.1758007812 3.1736647949 3.1811530762 3.1860939941 3.1908801270 3.1884990234 3.1890778809 3.1910151367 3.1931813965 3.1949711914 3.1842128906 3.1856918945 3.1792031250 3.1807453613 3.1766962891 3.1757600098 3.1782751465 3.1817502441 3.1836264648 3.1787382813 3.1786943359 3.1797878418 3.1845249023
3.1608666992 3.1650510254 3.1689836426 3.1761867676 3.1710566406 3.1665979004 3.1626962891 3.1640866699 3.1685522461 3.1708295898 3.1717543945 3.1716164551 3.1796108398 3.1722758789 3.1622841797 3.1541103516 3.1640498047 3.1657185059 3.1691635742 3.1613364258 3.1662958984 3.1692175293 3.1679685059 3.1659497070 3.1667087402 3.1731452637 3.1728679199 3.1765136719 3.1751088867 3.1743874512 3.1750590820 3.1770573730 3.1721384277 3.1735588379 3.1702268066 3.1652136230 3.1616232910 3.1658364258 3.1726464844 3.1745815430 3.1740471191 3.1775546875 3.1739565430 3.1797202148 3.1774853516 3.1867661133 3.1803320312 3.1826655273 3.1796325684 3.1828220215 3.1797424316 3.1794257812 3.1810930176 3.1826911621 3.1840649414 3.1819252930 3.1766354980 3.1759626465 3.1755793457 3.1783227539 3.1761086426 3.1838601074 3.1822954102 3.1824401855 3.1816513672 3.1817709961 3.1829687500 3.1801984863 3.1826333008 3.1857414551 3.1860805664 3.1838420410 3.1790959473 3.1808674316 3.1850449219 3.1866440430 3.1887290039 3.1838737793 3.1893999023 3.1911193848 3.1925913086 3.1851118164 3.1818076172 3.1804609375 3.1830168457 3.1868632812 3.1845495605 3.1856577148 3.1857302246 3.1832995605 3.1774667969 3.1762558594 3.1776940918 3.1815927734 3.1890349121 3.1927236328 3.1863715820 3.1768647461 3.1765974121 3.1781569824 3.1807788086 3.1831235352 3.1893872070 3.1906369629 3.1874909668 3.1846667480 3.1848742676 3.1883249512 3.1879226074 3.1867600098 3.1858334961 3.1857231445 3.1870827637 3.1802780762 3.1769291992 3.1771105957 3.1845085449 3.1927399902 3.1966525879 3.1933913574 3.1898847656 3.1865541992 3.1866862793 3.1928764648 3.1942973633 3.1948837891 3.1874980469 3.1898752441 3.1892734375 3.1886921387 3.1841164551 3.1838298340 3.1814660645 3.1815666504 3.1814311523 3.1845175781 3.1912839355 3.1921091309 3.1926289062 3.1908984375 3.1900744629 3.1884848633 3.1861901855 3.1883571777 3.1857407227 3.1902316895 3.1894638672 3.1916760254 3.1892109375 3.1906557617 3.1859990234 3.1842795410 3.1824499512 3.1869033203 3.1856213379 3.1863510742 3.1865305176 3.1868659668 3.1878161621 3.1855134277 3.1843395996 3.1839599609 3.1859748535 3.1881909180 3.1888435059 3.1898989258 3.1921516113 3.1910622559 3.1919816895 3.1918195801 3.1917875977 3.1917392578 3.1913515625 3.1913186035 3.1894750977 3.1918771973 3.1913647461 3.1904291992 3.1834895020 3.1871972656 3.1893427734 3.1936970215 3.1907583008 3.1961274414 3.1958659668 3.1894628906 3.1798359375 3.1810600586 3.1881130371 3.1946765137 3.1973471680 3.2006520996 3.1975844727 3.1952194824 3.1932644043 3.1957795410 3.1964194336 3.1964770508 3.1946276855 3.1938916016 3.1979077148 3.1989155273 3.1976799316 3.1899277344 3.1863527832 3.1819870605 3.1829741211 3.1835270996 3.1909626465 3.1922106934 3.2016940918 3.2001601562 3.2001472168 3.1999946289 3.2028967285 3.2014558105 3.1976560059 3.1971318359 3.1938439941 3.1920541992 3.1902238770 3.1875383301 3.1962648926 3.1969575195 3.1969228516 3.1948671875 3.1967687988 3.2018105469 3.2011721191
3.1678640137 3.1751154785 3.1798801270 3.1847087402 3.1845446777 3.1864609375 3.1903388672 3.1839306641 3.1833452148 3.1805407715 3.1915163574 3.1926628418 3.1966550293 3.1862768555 3.1763388672 3.1708188477 3.1781640625 3.1836635742 3.1838417969 3.1794360352 3.1809665527 3.1841552734 3.1813781738 3.1810817871 3.1804265137 3.1854201660 3.1853974609 3.1862409668 3.1827834473 3.1844636230 3.1889863281 3.1904956055 3.1867224121 3.1853879395 3.1837548828 3.1818283691 3.1806469727 3.1811418457 3.1867333984 3.1890598145 3.1903320313 3.1859318848 3.1874301758 3.1947797852 3.1948554688 3.2001752930 3.1930166016 3.1907092285 3.1932473145 3.1920451660 3.1930583496 3.1926972656 3.1963762207 3.1948364258 3.1942126465 3.1913078613 3.1849792480 3.1855800781 3.1857485352 3.1916997070 3.1882109375 3.1925590820 3.1934260254 3.1953886719 3.1937421875 3.1899448242 3.1945534668 3.1943728027 3.1978701172 3.1948203125 3.1963164063 3.1985458984 3.2004494629 3.2024602051 3.1997736816 3.2045986328 3.2104790039 3.2045275879 3.2021049805 3.1992541504 3.2046420898 3.2029423828 3.2029636230 3.1986684570 3.1992802734 3.2001235352 3.2024528809 3.1991403809 3.2008491211 3.1930795898 3.1902656250 3.1858569336 3.1917346191 3.1927951660 3.2035117188 3.2025178223 3.2010075684 3.1897858887 3.1916730957 3.1915893555 3.1936450195 3.1948652344 3.2001533203 3.2018295898 3.1984345703 3.1989758301 3.2008225098 3.2085830078 3.2043374023 3.1994667969 3.1960747070 3.1961118164 3.1988967285 3.1930432129 3.1913374023 3.1895925293 3.1956235352 3.2044118652 3.2071154785 3.2055463867 3.2010085449 3.1969721680 3.1996416016 3.2030705566 3.2084074707 3.2070996094 3.2038879395 3.2024611816 3.1985363770 3.1966977539 3.1949660645 3.1946298828 3.1946738281 3.1927285156 3.1985510254 3.2033623047 3.2079519043 3.2061157227 3.2039001465 3.2028923340 3.2053842773 3.2025361328 3.1991979980 3.2016608887 3.2004340820 3.2100791016 3.2072458496 3.2084362793 3.2020820313 3.2011936035 3.1962631836 3.1990197754 3.2017885742 3.2056437988 3.2011425781 3.2010939941 3.2010412598 3.2019838867 3.2019526367 3.2024418945 3.2027177734 3.1978493652 3.1974707031 3.1984472656 3.2019013672 3.2034086914 3.2064670410 3.2057824707 3.2052514648 3.2052548828 3.2024628906 3.2035815430 3.2034316406 3.2066406250 3.2011872559 3.2034916992 3.2041555176 3.2034667969 3.1959663086 3.1996396484 3.2053823242 3.2094338379 3.2056538086 3.2112836914 3.2135705566 3.2102653809 3.1977333984 3.1984926758 3.2001586914 3.2076921387 3.2061589355 3.2104709473 3.2081237793 3.2103771973 3.2076728516 3.2070847168 3.2102172852 3.2088859863 3.2092883301 3.2090375977 3.2112106934 3.2153737793 3.2106352539 3.2075034180 3.2022739258 3.1995654297 3.2008708496 3.2031528320 3.2075375977 3.2076118164 3.2104516602 3.2127907715 3.2145502930 3.2124562988 3.2053598633 3.2138408203 3.2147019043 3.2193037109 3.2140668945 3.2044072266 3.2017204590 3.2010830078 3.2073034668 3.2101333008 3.2107883301 3.2081232910 3.2073247070 3.2130168457 3.2123479004
3.1790312500 3.1870109863 3.1909196777 3.1955944824 3.1965278320 3.2033625488 3.2039326172 3.2003007813 3.1883059082 3.1902858887 3.1959523926 3.1993828125 3.2012268066 3.1957548828 3.1864870605 3.1811147461 3.1852758789 3.1937409668 3.1933012695 3.1908500977 3.1945686035 3.1970466309 3.1963271484 3.1946542969 3.1942695313 3.1936416016 3.1956379395 3.1960834961 3.1925527344 3.1936950684 3.1939792480 3.1983811035 3.1993254395 3.1994294434 3.1954274902 3.1916047363 3.1943264160 3.1956999512 3.2005107422 3.2039812012 3.2022590332 3.1969960938 3.1970324707 3.2055898437 3.2064953613 3.2076230469 3.2018596191 3.2000070801 3.2005764160 3.1989738770 3.2029628906 3.2026840820 3.2043198242 3.1999401855 3.1993061523 3.2019262695 3.1983527832 3.1995622559 3.1969160156 3.2036884766 3.2023784180 3.2031174316 3.2027580566 3.2034558105 3.2030878906 3.2003029785 3.2032556152 3.2061481934 3.2079545898 3.2067856445 3.2052116699 3.2100136719 3.2147785645 3.2164711914 3.2098950195 3.2107187500 3.2178161621 3.2155712891 3.2086938477 3.2031750488 3.2071477051 3.2120739746 3.2138376465 3.2110187988 3.2078332520 3.2092961426 3.2142856445 3.2133837891 3.2139707031 3.2086494141 3.2102805176 3.2074968262 3.2078845215 3.2063308105 3.2070056152 3.2055258789 3.2046530762 3.2004619141 3.2008718262 3.2031123047 3.2046284180 3.2082194824 3.2070476074 3.2090354004 3.2063352051 3.2092229004 3.2138850098 3.2210112305 3.2178569336 3.2104855957 3.2076870117 3.2079841309 3.2089252930 3.2059338379 3.2060288086 3.2084001465 3.2112568359 3.2165810547 3.2137912598 3.2108530273 3.2069506836 3.2052282715 3.2069743652 3.2104052734 3.2118620605 3.2123029785 3.2100705566 3.2070720215 3.2057727051 3.2028947754 3.2077612305 3.2081215820 3.2074238281 3.2067460938 3.2081374512 3.2157329102 3.2186342773 3.2186086426 3.2175659180 3.2162719727 3.2175397949 3.2149309082 3.2129111328 3.2129235840 3.2157172852 3.2198725586 3.2183342285 3.2175244141 3.2119487305 3.2096804199 3.2078835449 3.2111501465 3.2105144043 3.2118583984 3.2100500488 3.2132993164 3.2174306641 3.2171630859 3.2148857422 3.2120988770 3.2100703125 3.2067641602 3.2077145996 3.2093562012 3.2089313965 3.2091379395 3.2119013672 3.2120209961 3.2103959961 3.2107089844 3.2088544922 3.2099177246 3.2103569336 3.2133823242 3.2113288574 3.2155759277 3.2156237793 3.2129545898 3.2069221191 3.2128354492 3.2207177734 3.2236132813 3.2186345215 3.2194719238 3.2246315918 3.2235720215 3.2165085449 3.2139631348 3.2153603516 3.2238562012 3.2220268555 3.2191694336 3.2164719238 3.2170083008 3.2177468262 3.2173007813 3.2179724121 3.2147614746 3.2147746582 3.2171291504 3.2215603027 3.2197182617 3.2194506836 3.2194001465 3.2182077637 3.2162995605 3.2115605469 3.2139035645 3.2178923340 3.2175900879 3.2167114258 3.2183649902 3.2201577148 3.2197312012 3.2171665039 3.2194294434 3.2319135742 3.2348159180 3.2282514648 3.2186059570 3.2169609375 3.2168239746 3.2208483887 3.2158662109 3.2191672363 3.2183583984 3.2179150391 3.2178461914 3.2152844238
3.1985615234 3.1965895996 3.2009340820 3.2013447266 3.2050930176 3.2071179199 3.2141901855 3.2091354980 3.2093454590 3.2108308105 3.2114121094 3.2083322754 3.2108457031 3.2090549316 3.2060146484 3.1984145508 3.2015742188 3.2060388184 3.2054045410 3.2044741211 3.2077951660 3.2119084473 3.2150800781 3.2119821777 3.2097268066 3.2038020020 3.2035837402 3.2063759766 3.2098625488 3.2077790527 3.2110175781 3.2132504883 3.2145803223 3.2101208496 3.2081396484 3.2095708008 3.2123049316 3.2141311035 3.2180983887 3.2171008301 3.2132617188 3.2109279785 3.2119089355 3.2179418945 3.2174431152 3.2160966797 3.2126799316 3.2129824219 3.2137224121 3.2110031738 3.2128024902 3.2150068359 3.2148276367 3.2106828613 3.2097749023 3.2188444824 3.2239912109 3.2231018066 3.2152934570 3.2211252441 3.2182534180 3.2221513672 3.2146687012 3.2194528809 3.2174401855 3.2175390625 3.2182033691 3.2229304199 3.2258015137 3.2266706543 3.2239875488 3.2233776855 3.2250512695 3.2277976074 3.2237917480 3.2236545410 3.2295087891 3.2337419434 3.2256123047 3.2141464844 3.2140502930 3.2215183105 3.2289958496 3.2305112305 3.2260603027 3.2213674316 3.2278212891 3.2298059082 3.2355207520 3.2293481445 3.2324223633 3.2275949707 3.2266528320 3.2184704590 3.2161115723 3.2151452637 3.2174145508 3.2185515137 3.2173227539 3.2198544922 3.2239411621 3.2254079590 3.2238503418 3.2237546387 3.2217800293 3.2220168457 3.2233852539 3.2330703125 3.2267404785 3.2245222168 3.2207717285 3.2252575684 3.2233903809 3.2207431641 3.2242250977 3.2255544434 3.2276838379 3.2264699707 3.2260417480 3.2244055176 3.2204135742 3.2185031738 3.2193747559 3.2182028809 3.2204123535 3.2204826660 3.2226423340 3.2183833008 3.2162939453 3.2172612305 3.2224775391 3.2234907227 3.2234038086 3.2221867676 3.2230278320 3.2258327637 3.2229379883 3.2244182129 3.2275302734 3.2270139160 3.2282666016 3.2244030762 3.2261206055 3.2257011719 3.2285466309 3.2323640137 3.2328659668 3.2313930664 3.2266616211 3.2238032227 3.2249680176 3.2268330078 3.2250598145 3.2220744629 3.2212871094 3.2259514160 3.2284587402 3.2314785156 3.2266313477 3.2260207520 3.2255122070 3.2238503418 3.2257434082 3.2234479980 3.2238984375 3.2214719238 3.2301159668 3.2302270508 3.2288522949 3.2278986816 3.2259758301 3.2271240234 3.2253828125 3.2289748535 3.2318750000 3.2326877441 3.2291271973 3.2251369629 3.2237888184 3.2274260254 3.2324555664 3.2341196289 3.2311118164 3.2346394043 3.2351982422 3.2397036133 3.2335222168 3.2319431152 3.2308808594 3.2371711426 3.2340446777 3.2283901367 3.2251242676 3.2310219727 3.2368664551 3.2323693848 3.2277109375 3.2258937988 3.2285603027 3.2330654297 3.2292292480 3.2279487305 3.2232158203 3.2345849609 3.2362841797 3.2391501465 3.2324741211 3.2351845703 3.2331240234 3.2331540527 3.2310227051 3.2341027832 3.2365209961 3.2344445801 3.2293867188 3.2418664551 3.2453540039 3.2488122559 3.2418471680 3.2358940430 3.2374768066 3.2383901367 3.2373239746 3.2319394531 3.2330148926 3.2328759766 3.2305285645 3.2273930664 3.2311237793
3.2165471191 3.2137573242 3.2130202637 3.2176000977 3.2145351563 3.2159182129 3.2160087891 3.2215205078 3.2235275879 3.2304492188 3.2246752930 3.2162690430 3.2191679687 3.2261147461 3.2233225098 3.2162822266 3.2167790527 3.2171286621 3.2155041504 3.2139411621 3.2185480957 3.2208212891 3.2253632812 3.2227775879 3.2247175293 3.2216184082 3.2197292480 3.2198012695 3.2212072754 3.2207175293 3.2215412598 3.2258845215 3.2248708496 3.2208012695 3.2194765625 3.2205996094 3.2250881348 3.2292451172 3.2284067383 3.2240148926 3.2222177734 3.2231208496 3.2268906250 3.2288395996 3.2263767090 3.2245351562 3.2223120117 3.2258154297 3.2271630859 3.2281328125 3.2223974609 3.2239101563 3.2232333984 3.2220056152 3.2251665039 3.2369460449 3.2397849121 3.2322116699 3.2236733398 3.2289504395 3.2314956055 3.2330024414 3.2329724121 3.2328061523 3.2341599121 3.2314755859 3.2332429199 3.2384760742 3.2380439453 3.2377829590 3.2359323730 3.2358681641 3.2366840820 3.2402016602 3.2375053711 3.2357829590 3.2368781738 3.2407675781 3.2395463867 3.2314877930 3.2318725586 3.2309660645 3.2353854980 3.2359880371 3.2336030273 3.2307937012 3.2333078613 3.2365957031 3.2434301758 3.2416291504 3.2444458008 3.2412902832 3.2390766602 3.2364357910 3.2276384277 3.2266523438 3.2260800781 3.2315903320 3.2300461426 3.2307890625 3.2344326172 3.2348613281 3.2325256348 3.2313847656 3.2324333496 3.2338317871 3.2307331543 3.2330927734 3.2283520508 3.2306562500 3.2302294922 3.2351005859 3.2309055176 3.2323898926 3.2347155762 3.2384619141 3.2382014160 3.2376640625 3.2370236816 3.2358525391 3.2348408203 3.2303996582 3.2294375000 3.2271450195 3.2262663574 3.2306359863 3.2330524902 3.2333171387 3.2320788574 3.2316547852 3.2351682129 3.2361916504 3.2366574707 3.2368479004 3.2389963379 3.2350180664 3.2317580566 3.2305297852 3.2374470215 3.2370505371 3.2391894531 3.2355603027 3.2385842285 3.2349216309 3.2388425293 3.2404077148 3.2444621582 3.2391159668 3.2367556152 3.2317058105 3.2366101074 3.2341721191 3.2330332031 3.2292260742 3.2314187012 3.2350615234 3.2364833984 3.2414357910 3.2368603516 3.2362636719 3.2326533203 3.2347275391 3.2378645020 3.2359611816 3.2384531250 3.2334582520 3.2386547852 3.2381296387 3.2341943359 3.2320397949 3.2311032715 3.2360412598 3.2325305176 3.2373791504 3.2415629883 3.2432414551 3.2396369629 3.2322875977 3.2358564453 3.2375498047 3.2416494141 3.2423820801 3.2414091797 3.2438688965 3.2408522949 3.2429172363 3.2403344727 3.2413847656 3.2453642578 3.2476428223 3.2467897949 3.2359418945 3.2379492187 3.2425646973 3.2505708008 3.2443261719 3.2407585449 3.2394189453 3.2428293457 3.2429982910 3.2392746582 3.2333491211 3.2315532227 3.2403681641 3.2472905273 3.2513476563 3.2440393066 3.2445881348 3.2429792480 3.2442648926 3.2424812012 3.2442055664 3.2452585449 3.2466689453 3.2458840332 3.2521049805 3.2514548340 3.2533991699 3.2512585449 3.2512663574 3.2504333496 3.2513449707 3.2503327637 3.2426530762 3.2441184082 3.2437761230 3.2428190918 3.2406767578 3.2445837402
3.2294335938 3.2285668945 3.2288334961 3.2333972168 3.2305075684 3.2320952148 3.2318088379 3.2337070313 3.2381352539 3.2461740723 3.2371391602 3.2289309082 3.2343610840 3.2396491699 3.2399885254 3.2341696777 3.2342783203 3.2329567871 3.2334902344 3.2324094238 3.2353935547 3.2357211914 3.2400166016 3.2402119141 3.2418757324 3.2392854004 3.2382753906 3.2358632812 3.2344440918 3.2358420410 3.2392331543 3.2401672363 3.2358688965 3.2325227051 3.2323134766 3.2342641602 3.2387678223 3.2364973145 3.2359733887 3.2353725586 3.2416037598 3.2454768066 3.2436103516 3.2413525391 3.2354450684 3.2339780273 3.2333195801 3.2413610840 3.2451467285 3.2482983398 3.2405134277 3.2412773438 3.2358466797 3.2379389648 3.2369648438 3.2474677734 3.2446682129 3.2397468262 3.2342678223 3.2407058105 3.2412338867 3.2469653320 3.2461425781 3.2508747559 3.2511896973 3.2494655762 3.2520151367 3.2495256348 3.2498872070 3.2440935059 3.2488408203 3.2486154785 3.2536582031 3.2520432129 3.2533356934 3.2511352539 3.2539448242 3.2546667480 3.2532578125 3.2488676758 3.2498029785 3.2487675781 3.2507961426 3.2486208496 3.2459128418 3.2445895996 3.2473732910 3.2519914551 3.2573745117 3.2571525879 3.2556279297 3.2491647949 3.2501079102 3.2486916504 3.2435720215 3.2386079102 3.2411206055 3.2481108398 3.2512524414 3.2516040039 3.2522004395 3.2508825684 3.2478593750 3.2444492188 3.2435246582 3.2437751465 3.2410805664 3.2415781250 3.2406052246 3.2455307617 3.2434631348 3.2447370605 3.2403950195 3.2424721680 3.2451035156 3.2487849121 3.2486965332 3.2499016113 3.2512407227 3.2494091797 3.2475422363 3.2460244141 3.2434362793 3.2412961426 3.2425390625 3.2446486816 3.2480556641 3.2502214355 3.2449550781 3.2455236816 3.2457819824 3.2499174805 3.2487770996 3.2525451660 3.2515756836 3.2502736816 3.2477824707 3.2475461426 3.2504863281 3.2481508789 3.2510722656 3.2489111328 3.2514333496 3.2489052734 3.2514050293 3.2533320313 3.2592048340 3.2571931152 3.2555764160 3.2495051270 3.2526440430 3.2496477051 3.2488864746 3.2466406250 3.2494033203 3.2548066406 3.2506506348 3.2551044922 3.2517556152 3.2549396973 3.2506481934 3.2488537598 3.2496745605 3.2474897461 3.2536462402 3.2512734375 3.2571406250 3.2542607422 3.2508371582 3.2482495117 3.2487221680 3.2529760742 3.2515317383 3.2522416992 3.2556757812 3.2560207520 3.2524409180 3.2521938477 3.2519895020 3.2516347656 3.2502031250 3.2518103027 3.2565761719 3.2590173340 3.2581584473 3.2543823242 3.2503947754 3.2519462891 3.2574475098 3.2603251953 3.2574677734 3.2492705078 3.2550302734 3.2631933594 3.2675739746 3.2630903320 3.2577495117 3.2560725098 3.2552031250 3.2574702148 3.2523366699 3.2490190430 3.2457709961 3.2529323730 3.2609450684 3.2687224121 3.2664187012 3.2625417480 3.2607968750 3.2617236328 3.2620913086 3.2612287598 3.2629838867 3.2622160645 3.2605607910 3.2648439941 3.2641108398 3.2673247070 3.2643664551 3.2619875488 3.2612573242 3.2636831055 3.2607333984 3.2571198730 3.2578466797 3.2611132813 3.2600034180 3.2561870117 3.2605292969
3.2375239258 3.2455847168 3.2480261230 3.2512424316 3.2528344727 3.2503725586 3.2466728516 3.2420581055 3.2453442383 3.2513505859 3.2469260254 3.2452250977 3.2491650391 3.2547673340 3.2547397461 3.2490773926 3.2486411133 3.2476848145 3.2538400879 3.2534550781 3.2512922363 3.2494572754 3.2537397461 3.2519709473 3.2574699707 3.2566413574 3.2567136230 3.2496020508 3.2466962891 3.2474489746 3.2472722168 3.2475117188 3.2481345215 3.2473239746 3.2460949707 3.2463161621 3.2508291016 3.2474567871 3.2434770508 3.2433269043 3.2550944824 3.2564960938 3.2604438477 3.2551826172 3.2521982422 3.2491740723 3.2491105957 3.2549179688 3.2519992676 3.2566726074 3.2524980469 3.2560710449 3.2501135254 3.2495483398 3.2513225098 3.2490981445 3.2450930176 3.2418808594 3.2437087402 3.2497377930 3.2563427734 3.2605422363 3.2625654297 3.2605595703 3.2615625000 3.2568779297 3.2606191406 3.2560102539 3.2554082031 3.2516618652 3.2591459961 3.2591623535 3.2632541504 3.2612885742 3.2644907227 3.2651489258 3.2656345215 3.2614838867 3.2635607910 3.2582490234 3.2609484863 3.2603256836 3.2625541992 3.2603718262 3.2564218750 3.2592314453 3.2601584473 3.2647399902 3.2666665039 3.2675783691 3.2639316406 3.2596401367 3.2589418945 3.2603586426 3.2563571777 3.2544194336 3.2544465332 3.2575659180 3.2615043945 3.2616137695 3.2621735840 3.2577744141 3.2564860840 3.2551025391 3.2527727051 3.2561870117 3.2525847168 3.2522692871 3.2499135742 3.2554140625 3.2571032715 3.2560031738 3.2514631348 3.2510905762 3.2518957520 3.2593508301 3.2599140625 3.2642470703 3.2598708496 3.2564011230 3.2558732910 3.2534572754 3.2539838867 3.2523427734 3.2554528809 3.2612697754 3.2630058594 3.2659501953 3.2587993164 3.2574145508 3.2566428223 3.2609040527 3.2609045410 3.2604985352 3.2584924316 3.2560227051 3.2587380371 3.2610581055 3.2637265625 3.2589997559 3.2594731445 3.2582697754 3.2611286621 3.2593942871 3.2601716309 3.2638347168 3.2717321777 3.2705173340 3.2687924805 3.2632004395 3.2670664063 3.2622277832 3.2604689941 3.2555759277 3.2601911621 3.2649277344 3.2664038086 3.2687937012 3.2672622070 3.2623688965 3.2553557129 3.2557294922 3.2639125977 3.2639729004 3.2666682129 3.2627404785 3.2667790527 3.2620029297 3.2612656250 3.2606162109 3.2606083984 3.2619614258 3.2619133301 3.2643686523 3.2644409180 3.2648420410 3.2629309082 3.2672463379 3.2678466797 3.2662907715 3.2652473145 3.2659975586 3.2689445801 3.2678369141 3.2691740723 3.2648481445 3.2598278809 3.2602770996 3.2696550293 3.2743981934 3.2717087402 3.2637727051 3.2696652832 3.2755139160 3.2805483398 3.2757241211 3.2737568359 3.2695942383 3.2676794434 3.2666855469 3.2660451660 3.2637050781 3.2633300781 3.2651284180 3.2739182129 3.2834404297 3.2798437500 3.2747346191 3.2717812500 3.2750576172 3.2709384766 3.2693703613 3.2704228516 3.2767639160 3.2751816406 3.2796711426 3.2789272461 3.2823549805 3.2753122559 3.2742585449 3.2740266113 3.2762731934 3.2725798340 3.2696906738 3.2728847656 3.2818750000 3.2759189453 3.2728405762 3.2703203125
3.2580971680 3.2607998047 3.2642434082 3.2667919922 3.2683085938 3.2707495117 3.2686992188 3.2638718262 3.2609660645 3.2641879883 3.2643725586 3.2651503906 3.2669863281 3.2703852539 3.2690102539 3.2652617188 3.2635014648 3.2643041992 3.2668159180 3.2676411133 3.2674655762 3.2668850098 3.2683498535 3.2688225098 3.2733593750 3.2688757324 3.2667758789 3.2618300781 3.2641970215 3.2635930176 3.2619599609 3.2611735840 3.2644084473 3.2619172363 3.2584113770 3.2583371582 3.2624621582 3.2615725098 3.2606833496 3.2622780762 3.2690056152 3.2703322754 3.2719077148 3.2699995117 3.2694208984 3.2708342285 3.2740439453 3.2746311035 3.2670397949 3.2695000000 3.2684011230 3.2727832031 3.2649060059 3.2632578125 3.2602543945 3.2622407227 3.2595754395 3.2611237793 3.2638571777 3.2720573730 3.2706123047 3.2712265625 3.2724252930 3.2718725586 3.2721157227 3.2682944336 3.2732292480 3.2673293457 3.2679011230 3.2642331543 3.2720090332 3.2708020020 3.2721701660 3.2704194336 3.2755668945 3.2755815430 3.2772324219 3.2769675293 3.2781694336 3.2785727539 3.2765129395 3.2790666504 3.2808154297 3.2808793945 3.2770451660 3.2796464844 3.2816123047 3.2858898926 3.2852805176 3.2845322266 3.2786762695 3.2722895508 3.2700974121 3.2673808594 3.2706762695 3.2725322266 3.2748002930 3.2715966797 3.2725942383 3.2754440918 3.2797128906 3.2793916016 3.2752136230 3.2728781738 3.2648520508 3.2641093750 3.2671291504 3.2728081055 3.2743361816 3.2750915527 3.2782658691 3.2722741699 3.2676342773 3.2666289063 3.2723076172 3.2786303711 3.2778173828 3.2764929199 3.2715136719 3.2680183105 3.2693342285 3.2683520508 3.2691755371 3.2692456055 3.2750156250 3.2765937500 3.2765078125 3.2747934570 3.2728137207 3.2722988281 3.2722458496 3.2754418945 3.2716708984 3.2733920898 3.2684653320 3.2702353516 3.2707844238 3.2746889648 3.2749614258 3.2694226074 3.2671420898 3.2695378418 3.2740419922 3.2749541016 3.2728134766 3.2763842773 3.2848466797 3.2882805176 3.2871455078 3.2834829102 3.2857424316 3.2838237305 3.2797932129 3.2748432617 3.2743742676 3.2795979004 3.2799521484 3.2819572754 3.2790202637 3.2754279785 3.2699780273 3.2721311035 3.2798720703 3.2804580078 3.2827731934 3.2807065430 3.2803400879 3.2768859863 3.2775566406 3.2786430664 3.2776054688 3.2777888184 3.2815432129 3.2817800293 3.2820881348 3.2799567871 3.2807495117 3.2816020508 3.2822937012 3.2793193359 3.2779423828 3.2765214844 3.2808452148 3.2853630371 3.2886667480 3.2835815430 3.2756416016 3.2752546387 3.2814150391 3.2874895020 3.2835634766 3.2818349609 3.2851982422 3.2909621582 3.2946708984 3.2907587891 3.2861745605 3.2838813477 3.2824506836 3.2824248047 3.2817622070 3.2822856445 3.2789941406 3.2758176270 3.2844279785 3.2933803711 3.2924611816 3.2892670898 3.2856464844 3.2902487793 3.2883806152 3.2900822754 3.2892902832 3.2909099121 3.2932937012 3.2970769043 3.2977604980 3.2958430176 3.2874992676 3.2880324707 3.2918288574 3.2979824219 3.2919682617 3.2918703613 3.2953188477 3.3013261719 3.2964318848 3.2914645996 3.2867795410
3.2770427246 3.2773056641 3.2818217773 3.2797814941 3.2799516602 3.2794055176 3.2833222656 3.2798425293 3.2771911621 3.2822448730 3.2833383789 3.2843579102 3.2827145996 3.2818144531 3.2798891602 3.2760488281 3.2775573730 3.2769987793 3.2780209961 3.2760390625 3.2757270508 3.2751953125 3.2753767090 3.2775839844 3.2841374512 3.2829992676 3.2786350098 3.2737746582 3.2778649902 3.2766635742 3.2756994629 3.2773825684 3.2789553223 3.2772526855 3.2756496582 3.2748576660 3.2773107910 3.2781040039 3.2758649902 3.2771845703 3.2766726074 3.2779963379 3.2776696777 3.2782070313 3.2809838867 3.2863076172 3.2883254395 3.2865429688 3.2777854004 3.2788161621 3.2808291016 3.2848781738 3.2779750977 3.2749475098 3.2736914063 3.2757963867 3.2773500977 3.2792165527 3.2828366699 3.2863122559 3.2818127441 3.2794472656 3.2833083496 3.2842878418 3.2806123047 3.2747392578 3.2811333008 3.2792827148 3.2811413574 3.2816943359 3.2851743164 3.2844826660 3.2802390137 3.2817106934 3.2825644531 3.2868842773 3.2853303223 3.2875874023 3.2903681641 3.2912983398 3.2912993164 3.2925295410 3.2937319336 3.2950751953 3.2924223633 3.2944697266 3.2924121094 3.2967802734 3.2974619141 3.2969218750 3.2898361816 3.2858508301 3.2831164551 3.2817346191 3.2849812012 3.2868913574 3.2854694824 3.2779089355 3.2778198242 3.2816948242 3.2879821777 3.2877199707 3.2865109863 3.2871132812 3.2793364258 3.2770571289 3.2769387207 3.2844892578 3.2834753418 3.2848376465 3.2899074707 3.2894960937 3.2869709473 3.2877626953 3.2920698242 3.2945878906 3.2897011719 3.2857758789 3.2797941895 3.2810417480 3.2842404785 3.2846936035 3.2838747559 3.2877329102 3.2901308594 3.2904985352 3.2851799316 3.2854553223 3.2844472656 3.2874916992 3.2861267090 3.2880109863 3.2873371582 3.2878933105 3.2867072754 3.2848303223 3.2827897949 3.2824978027 3.2850895996 3.2859357910 3.2849809570 3.2861958008 3.2884450684 3.2887145996 3.2864741211 3.2907189941 3.2961870117 3.2965534668 3.2935063477 3.2904267578 3.2925351563 3.2925957031 3.2916420898 3.2870615234 3.2851142578 3.2896237793 3.2908269043 3.2897319336 3.2855544434 3.2846381836 3.2824250488 3.2878225098 3.2883461914 3.2924348145 3.2916850586 3.2868679199 3.2832595215 3.2832792969 3.2878686523 3.2881032715 3.2864182129 3.2874470215 3.2952736816 3.2962939453 3.2988984375 3.2972434082 3.2950224609 3.2896538086 3.2867609863 3.2851936035 3.2849633789 3.2832302246 3.2884897461 3.2955012207 3.2973574219 3.2966125488 3.2902348633 3.2938715820 3.2943632812 3.2967839355 3.2970153809 3.2950185547 3.2960832520 3.2995200195 3.3050810547 3.3012163086 3.2961254883 3.2970605469 3.2976647949 3.2966486816 3.2937778320 3.2942019043 3.2918420410 3.2900620117 3.2949221191 3.3007966309 3.2953886719 3.2964353027 3.2915734863 3.2962565918 3.2972292480 3.3058239746 3.3047463379 3.3060454102 3.3063952637 3.3086374512 3.3066062012 3.3050483398 3.2980810547 3.3008632813 3.3026567383 3.3084797363 3.3064497070 3.3107414551 3.3133127441 3.3109489746 3.3022202148 3.2974729004 3.2966110840
3.2903159180 3.2874733887 3.2896291504 3.2875288086 3.2897167969 3.2932236328 3.2965991211 3.2922412109 3.2946000977 3.2965061035 3.2971274414 3.2962263184 3.2941928711 3.2912739258 3.2898854980 3.2928833008 3.2961877441 3.2950031738 3.2927263184 3.2908889160 3.2890720215 3.2928437500 3.2872890625 3.2913825684 3.2963054199 3.3011850586 3.2987983398 3.2927207031 3.2948442383 3.2905444336 3.2916188965 3.2889465332 3.2903432617 3.2893574219 3.2890449219 3.2894040527 3.2887385254 3.2917089844 3.2935471191 3.2978935547 3.2958041992 3.2927390137 3.2874106445 3.2878352051 3.2935966797 3.2966774902 3.2988369141 3.2956333008 3.2916833496 3.2936989746 3.2968237305 3.3001267090 3.2950959473 3.2904113770 3.2906960449 3.2956970215 3.2980556641 3.3000139160 3.3006381836 3.3038906250 3.2989575195 3.2963500977 3.2986352539 3.3019682617 3.2987141113 3.2939216309 3.2991577148 3.3004489746 3.3016435547 3.3014001465 3.3023403320 3.3020117188 3.2980610352 3.2987807617 3.2972856445 3.3000949707 3.3016801758 3.3040534668 3.3067814941 3.3091496582 3.3070075684 3.3044482422 3.3032680664 3.3047202148 3.3056206055 3.3059204102 3.3073562012 3.3090424805 3.3101574707 3.3062700195 3.3041015625 3.3010961914 3.3002377930 3.2961958008 3.2983083496 3.2976245117 3.2981591797 3.2898967285 3.2898317871 3.2953891602 3.3018400879 3.3022177734 3.2988334961 3.2986972656 3.2918017578 3.2864526367 3.2882832031 3.2962290039 3.2975781250 3.2965678711 3.3004672852 3.3034196777 3.3047744141 3.3053286133 3.3081230469 3.3074367676 3.3036467285 3.2974545898 3.2930798340 3.2901901855 3.2953647461 3.3002978516 3.3036098633 3.3068562012 3.3039384766 3.2995251465 3.2935903320 3.2943815918 3.2967880859 3.2994572754 3.2973413086 3.2997268066 3.3005781250 3.3030327148 3.3025263672 3.3040869141 3.3030556641 3.3028422852 3.3035002441 3.3021589355 3.3024497070 3.3012104492 3.3040339355 3.3058352051 3.3073349609 3.3092021484 3.3087792969 3.3127080078 3.3095229492 3.3067329102 3.3050227051 3.3053186035 3.3036025391 3.3039055176 3.3003825684 3.3046916504 3.3028439941 3.3005500488 3.2976870117 3.3006789551 3.3047768555 3.3035747070 3.3039628906 3.3023898926 3.3034897461 3.3019396973 3.2978850098 3.2965524902 3.2974760742 3.2987221680 3.2993942871 3.3024702148 3.3096022949 3.3115236816 3.3164216309 3.3145581055 3.3118183594 3.2996679688 3.3006523437 3.2994775391 3.3002456055 3.2983076172 3.3025300293 3.3098103027 3.3097983398 3.3098581543 3.3072961426 3.3106918945 3.3059201660 3.3101076660 3.3074550781 3.3069697266 3.3050595703 3.3105456543 3.3180720215 3.3150239258 3.3077507324 3.3116242676 3.3138603516 3.3140344238 3.3078823242 3.3099111328 3.3069943848 3.3060993652 3.3085065918 3.3103364258 3.3054238281 3.3058798828 3.3056162109 3.3128129883 3.3151743164 3.3240644531 3.3208117676 3.3187687988 3.3203715820 3.3235195313 3.3219052734 3.3197673340 3.3148415527 3.3177282715 3.3214670410 3.3245891113 3.3227707520 3.3230571289 3.3260844727 3.3207265625 3.3163190918 3.3129807129 3.3161506348
3.2967014160 3.2944741211 3.2943469238 3.2965993652 3.2983295898 3.3011955566 3.3021669922 3.3036557617 3.3045791016 3.3090952148 3.3084448242 3.3067937012 3.3059677734 3.3031977539 3.3040461426 3.3082441406 3.3115646973 3.3108852539 3.3071755371 3.3032128906 3.3011835938 3.3013139648 3.2968146973 3.2981271973 3.3065324707 3.3149626465 3.3168791504 3.3092443848 3.3067429199 3.3040661621 3.3016259766 3.3015800781 3.2999804688 3.3003588867 3.3020937500 3.3064057617 3.3069145508 3.3087585449 3.3076462402 3.3111684570 3.3062958984 3.3058237305 3.3012058105 3.3017966309 3.3055080566 3.3073295898 3.3074770508 3.3019152832 3.3024975586 3.3044392090 3.3091848145 3.3128051758 3.3086364746 3.3104235840 3.3092673340 3.3127666016 3.3115190430 3.3114580078 3.3125969238 3.3151662598 3.3138085938 3.3145119629 3.3130170898 3.3166760254 3.3139655762 3.3118498535 3.3097355957 3.3113635254 3.3134514160 3.3134282227 3.3119890137 3.3104030762 3.3113110352 3.3140788574 3.3141662598 3.3162248535 3.3186682129 3.3217170410 3.3214382324 3.3187519531 3.3146359863 3.3138176270 3.3129096680 3.3118186035 3.3097651367 3.3102099609 3.3150881348 3.3194194336 3.3196064453 3.3160166016 3.3128962402 3.3149882813 3.3145705566 3.3135100098 3.3102590332 3.3080568848 3.3077592773 3.3025878906 3.3037910156 3.3059382324 3.3113413086 3.3093557129 3.3102333984 3.3128535156 3.3089802246 3.3041652832 3.3039624023 3.3080095215 3.3040402832 3.3029199219 3.3068317871 3.3119802246 3.3143276367 3.3168867188 3.3191655273 3.3194389648 3.3158603516 3.3130266113 3.3084768066 3.3063198242 3.3077446289 3.3119338379 3.3133701172 3.3172126465 3.3155612793 3.3110388184 3.3040637207 3.3089663086 3.3113999023 3.3129624023 3.3055852051 3.3099570313 3.3098610840 3.3133762207 3.3107131348 3.3116918945 3.3146503906 3.3178461914 3.3187697754 3.3164580078 3.3174689941 3.3179733887 3.3189155273 3.3188635254 3.3200595703 3.3218164062 3.3212263184 3.3225854492 3.3232944336 3.3198281250 3.3155090332 3.3131003418 3.3137956543 3.3171901855 3.3135156250 3.3131955566 3.3129489746 3.3140356445 3.3128068848 3.3123723145 3.3153706055 3.3176298828 3.3133525391 3.3106345215 3.3095405273 3.3137607422 3.3114533691 3.3074423828 3.3079677734 3.3087438965 3.3140800781 3.3125949707 3.3195781250 3.3185502930 3.3233542480 3.3190742187 3.3159621582 3.3153239746 3.3156350098 3.3168212891 3.3145200195 3.3132480469 3.3175903320 3.3222839355 3.3242797852 3.3241760254 3.3215339355 3.3245993652 3.3189738770 3.3202451172 3.3186416016 3.3193979492 3.3153874512 3.3198708496 3.3267839355 3.3270021973 3.3212941895 3.3216931152 3.3237299805 3.3247927246 3.3214516602 3.3225119629 3.3240476074 3.3264523926 3.3274743652 3.3276086426 3.3222502441 3.3233017578 3.3190402832 3.3214838867 3.3211845703 3.3282956543 3.3254196777 3.3300817871 3.3308186035 3.3347209473 3.3327451172 3.3325473633 3.3312282715 3.3357534180 3.3405297852 3.3414084473 3.3367485352 3.3348041992 3.3338237305 3.3300734863 3.3254738770 3.3240688477 3.3243720703
3.3114824219 3.3081621094 3.3084907227 3.3097189941 3.3156184082 3.3133395996 3.3173803711 3.3161586914 3.3216850586 3.3199221191 3.3216972656 3.3186909180 3.3206801758 3.3227299805 3.3223994141 3.3233813477 3.3258818359 3.3264812012 3.3218937988 3.3218601074 3.3203759766 3.3194150391 3.3122893066 3.3125332031 3.3187534180 3.3274555664 3.3301677246 3.3269877930 3.3229694824 3.3167553711 3.3169531250 3.3196948242 3.3202954102 3.3168161621 3.3156286621 3.3211347656 3.3217875977 3.3264248047 3.3266381836 3.3280454102 3.3228522949 3.3215512695 3.3198793945 3.3221137695 3.3249223633 3.3253234863 3.3241828613 3.3240000000 3.3240651855 3.3234467773 3.3194931641 3.3243666992 3.3280087891 3.3333491211 3.3304575195 3.3282250977 3.3265585938 3.3293090820 3.3312297363 3.3292397461 3.3264145508 3.3287097168 3.3297055664 3.3354020996 3.3318151855 3.3320895996 3.3274868164 3.3274348145 3.3279833984 3.3290988770 3.3285100098 3.3291440430 3.3317727051 3.3328691406 3.3357780762 3.3356340332 3.3342250977 3.3330510254 3.3325310059 3.3353190918 3.3316809082 3.3287131348 3.3305107422 3.3282941895 3.3238869629 3.3234958496 3.3296508789 3.3335527344 3.3328298340 3.3280234375 3.3276730957 3.3306528320 3.3303308105 3.3287604980 3.3252297363 3.3254206543 3.3272475586 3.3232817383 3.3236025391 3.3245798340 3.3293557129 3.3262727051 3.3256362305 3.3255368652 3.3263505859 3.3187009277 3.3201333008 3.3253908691 3.3248227539 3.3194858398 3.3194094238 3.3224211426 3.3216867676 3.3216130371 3.3239228516 3.3215402832 3.3238103027 3.3262307129 3.3273881836 3.3240151367 3.3247846680 3.3254438477 3.3274812012 3.3295603027 3.3311079102 3.3282663574 3.3231440430 3.3277436523 3.3279189453 3.3290490723 3.3191574707 3.3231206055 3.3228310547 3.3268457031 3.3219633789 3.3267619629 3.3292807617 3.3357702637 3.3306433105 3.3274306641 3.3273562012 3.3318452148 3.3338015137 3.3335017090 3.3309943848 3.3337531738 3.3323596191 3.3356027832 3.3362841797 3.3379130859 3.3335983887 3.3330212402 3.3341093750 3.3377199707 3.3316572266 3.3279814453 3.3297236328 3.3330441895 3.3294013672 3.3259167480 3.3297080078 3.3326755371 3.3328400879 3.3275112305 3.3271250000 3.3288847656 3.3277824707 3.3240410156 3.3246333008 3.3244177246 3.3310832520 3.3295676270 3.3320917969 3.3309453125 3.3325327148 3.3294877930 3.3291735840 3.3300041504 3.3329116211 3.3338193359 3.3332727051 3.3328840332 3.3345605469 3.3372971191 3.3407773438 3.3378359375 3.3367841797 3.3368930664 3.3332507324 3.3365297852 3.3345688477 3.3387988281 3.3328669434 3.3371838379 3.3372187500 3.3405737305 3.3372907715 3.3393762207 3.3372331543 3.3393286133 3.3373015137 3.3377473145 3.3370219727 3.3392429199 3.3396091309 3.3388793945 3.3413886719 3.3441188965 3.3397639160 3.3419091797 3.3417177734 3.3451865234 3.3446804199 3.3510932617 3.3511315918 3.3555310059 3.3532084961 3.3541809082 3.3518845215 3.3526699219 3.3590112305 3.3572343750 3.3532324219 3.3463493652 3.3449431152 3.3445666504 3.3443972168 3.3457270508 3.3440151367
3.3271164551 3.3262539063 3.3223535156 3.3266296387 3.3322822266 3.3310480957 3.3300268555 3.3346467285 3.3351989746 3.3370898438 3.3350864258 3.3354375000 3.3395808105 3.3425629883 3.3412790527 3.3400478516 3.3391994629 3.3369965820 3.3338693848 3.3310092773 3.3326044922 3.3289492188 3.3280620117 3.3277082520 3.3319331055 3.3349597168 3.3386528320 3.3376765137 3.3350998535 3.3322958984 3.3336511230 3.3408906250 3.3352641602 3.3339465332 3.3331276855 3.3369467773 3.3348520508 3.3357819824 3.3350439453 3.3385412598 3.3348269043 3.3356840820 3.3338913574 3.3355444336 3.3353818359 3.3347873535 3.3332646484 3.3371582031 3.3420729980 3.3407785645 3.3323708496 3.3337243652 3.3397272949 3.3492927246 3.3458044434 3.3398295898 3.3353945312 3.3416025391 3.3455107422 3.3446472168 3.3361599121 3.3363278809 3.3363469238 3.3404011230 3.3419536133 3.3438952637 3.3389506836 3.3381210937 3.3376860352 3.3408090820 3.3404179688 3.3389091797 3.3433063965 3.3428666992 3.3458950195 3.3457595215 3.3464997559 3.3427014160 3.3415605469 3.3442666016 3.3404919434 3.3445622559 3.3456381836 3.3457172852 3.3397202148 3.3393149414 3.3446936035 3.3486164551 3.3431171875 3.3421691895 3.3399450684 3.3432641602 3.3413947754 3.3415229492 3.3385031738 3.3400622559 3.3417893066 3.3403254395 3.3380952148 3.3316403809 3.3353239746 3.3346254883 3.3392285156 3.3384902344 3.3400610352 3.3349582520 3.3339223633 3.3387282715 3.3362910156 3.3340847168 3.3317365723 3.3361831055 3.3340114746 3.3345373535 3.3325083008 3.3318681641 3.3318693848 3.3409365234 3.3457663574 3.3456330566 3.3428957520 3.3386596680 3.3388696289 3.3409611816 3.3475068359 3.3466823730 3.3421625977 3.3437531738 3.3418862305 3.3411130371 3.3313898926 3.3364689941 3.3372092285 3.3410634766 3.3374450684 3.3400761719 3.3407314453 3.3431247559 3.3377297363 3.3380048828 3.3395468750 3.3463979492 3.3423652344 3.3399328613 3.3375285645 3.3412836914 3.3429169922 3.3430727539 3.3443618164 3.3426374512 3.3437810059 3.3445620117 3.3484174805 3.3496364746 3.3445693359 3.3432812500 3.3463291016 3.3489221191 3.3446862793 3.3400026855 3.3397480469 3.3414113770 3.3427163086 3.3427172852 3.3427512207 3.3433569336 3.3436020508 3.3419042969 3.3447954102 3.3417805176 3.3433686523 3.3402836914 3.3433972168 3.3431337891 3.3438957520 3.3401989746 3.3393486328 3.3453002930 3.3471479492 3.3464606934 3.3412631836 3.3426984863 3.3414831543 3.3456433105 3.3500268555 3.3499047852 3.3502766113 3.3472534180 3.3427443848 3.3443051758 3.3448537598 3.3510256348 3.3453164063 3.3469240723 3.3460463867 3.3526640625 3.3520664063 3.3528754883 3.3488500977 3.3538464355 3.3544431152 3.3524309082 3.3518051758 3.3503366699 3.3522980957 3.3513576660 3.3579855957 3.3603271484 3.3572568359 3.3522961426 3.3505278320 3.3579274902 3.3586877441 3.3639326172 3.3639152832 3.3650996094 3.3643178711 3.3626586914 3.3611025391 3.3608425293 3.3620388184 3.3644504395 3.3591445313 3.3577333984 3.3591630859 3.3609697266 3.3588618164 3.3548891602 3.3540180664
3.3486936035 3.3496577148 3.3448886719 3.3459245605 3.3500280762 3.3469143066 3.3489562988 3.3490097656 3.3488071289 3.3471740723 3.3498815918 3.3525668945 3.3566081543 3.3551037598 3.3542758789 3.3489675293 3.3515720215 3.3506306152 3.3527719727 3.3513908691 3.3526430664 3.3513120117 3.3507631836 3.3528574219 3.3511359863 3.3486398926 3.3466416016 3.3500761719 3.3509367676 3.3535029297 3.3538090820 3.3541540527 3.3501611328 3.3474177246 3.3451184082 3.3476220703 3.3469899902 3.3496447754 3.3496369629 3.3531962891 3.3511135254 3.3516171875 3.3508417969 3.3533327637 3.3521098633 3.3492919922 3.3449636230 3.3511467285 3.3573547363 3.3563840332 3.3476496582 3.3456801758 3.3522280273 3.3608679199 3.3580356445 3.3532473145 3.3481245117 3.3572546387 3.3630759277 3.3624069824 3.3524519043 3.3479392090 3.3505561523 3.3532055664 3.3550141602 3.3575319824 3.3560759277 3.3575058594 3.3561569824 3.3609008789 3.3605869141 3.3583610840 3.3589995117 3.3553847656 3.3594782715 3.3583635254 3.3575134277 3.3542250977 3.3533178711 3.3519780273 3.3571088867 3.3620986328 3.3646118164 3.3629558105 3.3570222168 3.3577941895 3.3591577148 3.3618808594 3.3607131348 3.3588791504 3.3573146973 3.3577768555 3.3581813965 3.3575983887 3.3572985840 3.3580490723 3.3586862793 3.3573767090 3.3514824219 3.3470261230 3.3472045898 3.3516730957 3.3542421875 3.3521867676 3.3544008789 3.3518681641 3.3529475098 3.3546467285 3.3530622559 3.3522578125 3.3500107422 3.3568366699 3.3543352051 3.3533437500 3.3491328125 3.3439606934 3.3451513672 3.3512211914 3.3564138184 3.3564526367 3.3537114258 3.3527719727 3.3551047363 3.3598974609 3.3651538086 3.3657338867 3.3608044434 3.3596306152 3.3548056641 3.3566010742 3.3517802734 3.3558598633 3.3551279297 3.3542548828 3.3542126465 3.3576381836 3.3589233398 3.3605068359 3.3579235840 3.3540864258 3.3525017090 3.3528398437 3.3529301758 3.3536503906 3.3553100586 3.3569909668 3.3576599121 3.3587150879 3.3583471680 3.3562673340 3.3581562500 3.3614689941 3.3633801270 3.3619582520 3.3596459961 3.3581665039 3.3576850586 3.3600544434 3.3569477539 3.3550944824 3.3552282715 3.3567795410 3.3597160645 3.3590268555 3.3626096191 3.3602968750 3.3592263184 3.3562426758 3.3600422363 3.3575930176 3.3565878906 3.3561218262 3.3582155762 3.3632834473 3.3622453613 3.3630524902 3.3599628906 3.3648852539 3.3643129883 3.3651196289 3.3605556641 3.3588088379 3.3546091309 3.3545856934 3.3586596680 3.3580976563 3.3613601074 3.3620019531 3.3629226074 3.3636262207 3.3651713867 3.3680378418 3.3626369629 3.3650214844 3.3653117676 3.3710527344 3.3670954590 3.3691372070 3.3656755371 3.3702346191 3.3718454590 3.3729707031 3.3723217773 3.3699091797 3.3676945801 3.3691616211 3.3730136719 3.3814228516 3.3786796875 3.3764250488 3.3717019043 3.3763381348 3.3792897949 3.3820874023 3.3824851074 3.3863994141 3.3826437988 3.3807617188 3.3767756348 3.3758312988 3.3772304688 3.3750119629 3.3741333008 3.3744208984 3.3764592285 3.3802380371 3.3755568848 3.3696899414 3.3687675781
3.3643156738 3.3649672852 3.3642446289 3.3615065918 3.3612741699 3.3611430664 3.3615241699 3.3626120605 3.3574033203 3.3585498047 3.3620883789 3.3659665527 3.3665842285 3.3653244629 3.3657202148 3.3640319824 3.3641582031 3.3637902832 3.3645122070 3.3652434082 3.3657231445 3.3670610352 3.3690830078 3.3713940430 3.3652004395 3.3540712891 3.3504819336 3.3554648438 3.3686601563 3.3722033691 3.3657956543 3.3600278320 3.3519838867 3.3551894531 3.3542268066 3.3631650391 3.3635180664 3.3632155762 3.3585441895 3.3629628906 3.3641779785 3.3678178711 3.3649040527 3.3675419922 3.3630251465 3.3614885254 3.3572180176 3.3567900391 3.3630761719 3.3653413086 3.3653125000 3.3592573242 3.3600810547 3.3661274414 3.3693325195 3.3679182129 3.3628745117 3.3676096191 3.3706455078 3.3721772461 3.3658425293 3.3624855957 3.3632592773 3.3651591797 3.3664816895 3.3675673828 3.3667497559 3.3675930176 3.3684125977 3.3719174805 3.3719238281 3.3694057617 3.3708146973 3.3682453613 3.3698100586 3.3672641602 3.3706525879 3.3700463867 3.3720822754 3.3684602051 3.3706081543 3.3761501465 3.3753200684 3.3738474121 3.3731369629 3.3744956055 3.3710939941 3.3728635254 3.3721447754 3.3720000000 3.3679692383 3.3690146484 3.3717775879 3.3706936035 3.3679543457 3.3642514648 3.3647568359 3.3643342285 3.3627460938 3.3619345703 3.3627736816 3.3678801270 3.3723491211 3.3688491211 3.3659599609 3.3657839355 3.3685932617 3.3689001465 3.3637797852 3.3622866211 3.3656428223 3.3698112793 3.3735014648 3.3740795898 3.3730622559 3.3670468750 3.3614738770 3.3666428223 3.3697470703 3.3750214844 3.3685234375 3.3667092285 3.3654865723 3.3698842773 3.3751560059 3.3767089844 3.3755815430 3.3689689941 3.3655402832 3.3676379395 3.3697478027 3.3699465332 3.3675400391 3.3666242676 3.3694238281 3.3727966309 3.3740668945 3.3750922852 3.3726950684 3.3708618164 3.3663984375 3.3654746094 3.3674877930 3.3677612305 3.3717062988 3.3706374512 3.3733869629 3.3727209473 3.3725854492 3.3668464355 3.3670463867 3.3701655273 3.3733474121 3.3740974121 3.3729091797 3.3725686035 3.3727565918 3.3724819336 3.3707802734 3.3655520020 3.3681850586 3.3683996582 3.3706738281 3.3686928711 3.3722087402 3.3733386230 3.3725134277 3.3705969238 3.3739001465 3.3721166992 3.3706503906 3.3704223633 3.3725295410 3.3759772949 3.3727800293 3.3730874023 3.3718771973 3.3765422363 3.3788752441 3.3819199219 3.3768066406 3.3717641602 3.3661657715 3.3675324707 3.3715815430 3.3722604980 3.3760996094 3.3779079590 3.3789653320 3.3773422852 3.3771826172 3.3760356445 3.3748486328 3.3783117676 3.3801611328 3.3827102051 3.3802885742 3.3811298828 3.3809313965 3.3848520508 3.3891657715 3.3879479980 3.3900576172 3.3875605469 3.3872458496 3.3841638184 3.3907851563 3.3964536133 3.3954677734 3.3961325684 3.3889887695 3.3897197266 3.3873266602 3.3905698242 3.3918725586 3.3945878906 3.3922756348 3.3912194824 3.3891875000 3.3934980469 3.3859843750 3.3851682129 3.3839819336 3.3898596191 3.3920563965 3.3936459961 3.3875795898 3.3795605469 3.3759921875
3.3789082031 3.3837397461 3.3846064453 3.3754794922 3.3749929199 3.3743469238 3.3771132813 3.3770297852 3.3766811523 3.3754875488 3.3755791016 3.3763828125 3.3795654297 3.3800861816 3.3824833984 3.3834953613 3.3840405273 3.3795095215 3.3770847168 3.3812893066 3.3833464355 3.3864157715 3.3858645020 3.3883498535 3.3821723633 3.3703491211 3.3636501465 3.3692214355 3.3830231934 3.3861791992 3.3840927734 3.3760585938 3.3693137207 3.3682854004 3.3656394043 3.3746650391 3.3768127441 3.3799023437 3.3753981934 3.3782434082 3.3772145996 3.3794899902 3.3784189453 3.3843742676 3.3812651367 3.3783403320 3.3729780273 3.3720788574 3.3765395508 3.3797194824 3.3821730957 3.3784541016 3.3804704590 3.3839208984 3.3827922363 3.3837836914 3.3825476074 3.3839985352 3.3828850098 3.3796174316 3.3800510254 3.3831269531 3.3869841309 3.3866567383 3.3820493164 3.3810075684 3.3801059570 3.3808022461 3.3816904297 3.3872971191 3.3905881348 3.3874226074 3.3862768555 3.3860676270 3.3880251465 3.3887382813 3.3902160645 3.3896840820 3.3869973145 3.3850688477 3.3885000000 3.3902370605 3.3878884277 3.3893833008 3.3908518066 3.3929792480 3.3925161133 3.3897980957 3.3904848633 3.3844682617 3.3826098633 3.3818544922 3.3889631348 3.3854360352 3.3825263672 3.3773242188 3.3773352051 3.3779113770 3.3788679199 3.3833154297 3.3813496094 3.3852072754 3.3864135742 3.3852692871 3.3801916504 3.3797004395 3.3871137695 3.3862019043 3.3831037598 3.3808649902 3.3851704102 3.3852656250 3.3879033203 3.3873027344 3.3874216309 3.3814755859 3.3805979004 3.3814362793 3.3851342773 3.3869643555 3.3851271973 3.3819519043 3.3817949219 3.3835063477 3.3883933105 3.3878911133 3.3884201660 3.3855622559 3.3839758301 3.3867619629 3.3887497559 3.3869528809 3.3848703613 3.3818098145 3.3844470215 3.3867216797 3.3917451172 3.3909619141 3.3915700684 3.3857683105 3.3844702148 3.3853671875 3.3885319824 3.3895029297 3.3870969238 3.3854448242 3.3863295898 3.3879477539 3.3884064941 3.3869592285 3.3859338379 3.3897224121 3.3909838867 3.3906118164 3.3895969238 3.3899370117 3.3921425781 3.3913398437 3.3896054688 3.3834213867 3.3841206055 3.3869621582 3.3890249023 3.3869338379 3.3860603027 3.3848334961 3.3839577637 3.3838747559 3.3881171875 3.3907822266 3.3927668457 3.3932099609 3.3926120605 3.3908269043 3.3877756348 3.3881186523 3.3874172363 3.3889672852 3.3921035156 3.3966503906 3.3961418457 3.3896840820 3.3860654297 3.3845981445 3.3865966797 3.3863737793 3.3927263184 3.3959907227 3.3994580078 3.3987958984 3.3951713867 3.3918986816 3.3938969727 3.3994313965 3.3979162598 3.3943461914 3.3941335449 3.3972556152 3.3982153320 3.3990300293 3.3998464355 3.4003884277 3.4022429199 3.4021779785 3.3994519043 3.4035141602 3.4063476562 3.4155495605 3.4111828613 3.4148056641 3.4086909180 3.4067331543 3.4059187012 3.4040861816 3.4049465332 3.4068837891 3.4079291992 3.4077604980 3.4070075684 3.4086604004 3.4061228027 3.4026313477 3.4044724121 3.4082580566 3.4080173340 3.4084736328 3.4010632324 3.3948764648 3.3895612793
3.3917167969 3.3941491699 3.3952214355 3.3885310059 3.3875659180 3.3866979980 3.3904902344 3.3923129883 3.3937177734 3.3892180176 3.3843984375 3.3870534668 3.3917180176 3.3947871094 3.3943903809 3.3954882813 3.3917402344 3.3869980469 3.3825104980 3.3885935059 3.3896013184 3.3916098633 3.3911340332 3.3940332031 3.3918730469 3.3877792969 3.3854799805 3.3898718262 3.3943962402 3.3943386230 3.3931152344 3.3940529785 3.3902783203 3.3883757324 3.3814958496 3.3884248047 3.3865097656 3.3905888672 3.3870329590 3.3919528809 3.3926384277 3.3968203125 3.3928530273 3.3976132812 3.3942773438 3.3978439941 3.3923923340 3.3879160156 3.3887243652 3.3894741211 3.3924492187 3.3951911621 3.3986633301 3.3987983398 3.3944296875 3.3940966797 3.3967631836 3.3981875000 3.3919338379 3.3885051270 3.3912441406 3.3976062012 3.4028793945 3.4008498535 3.3943583984 3.3921140137 3.3919392090 3.3921071777 3.3948688965 3.4020854492 3.4044040527 3.3992775879 3.3960146484 3.3976931152 3.4001723633 3.4041635742 3.4068159180 3.4092060547 3.4061550293 3.4042133789 3.3990483398 3.4000559082 3.3980656738 3.4019250488 3.4045566406 3.4106613770 3.4097976074 3.4040834961 3.4005026855 3.3936228027 3.3907463379 3.3917915039 3.3994743652 3.3965310059 3.3928627930 3.3873332520 3.3904797363 3.3933554688 3.3977587891 3.3970803223 3.3937355957 3.3952375488 3.4008730469 3.3992976074 3.3949299316 3.3927595215 3.3999787598 3.3993056641 3.3979562988 3.3976081543 3.4010983887 3.4008979492 3.4002702637 3.3973552246 3.3987785645 3.3974443359 3.3974641113 3.3974409180 3.4011704102 3.4024487305 3.4044660645 3.3984826660 3.3956840820 3.3924907227 3.3952497559 3.3933784180 3.3951367187 3.3952116699 3.3958095703 3.3951420898 3.3983784180 3.4001689453 3.3987517090 3.3981938477 3.3993825684 3.4035073242 3.4041811523 3.4038640137 3.3984516602 3.3966708984 3.3973342285 3.4024545898 3.4039968262 3.4009055176 3.3979716797 3.3930964355 3.3940629883 3.3977888184 3.4009133301 3.3994072266 3.3980900879 3.4010607910 3.4013327637 3.3972065430 3.3986569824 3.4038645020 3.4082351074 3.4070754395 3.4076396484 3.4030578613 3.3993486328 3.3975009766 3.4023757324 3.4019626465 3.3982727051 3.3939636230 3.3949880371 3.3992749023 3.4045717773 3.4048327637 3.4069780273 3.4067263184 3.4061496582 3.4003937988 3.3960300293 3.3950183105 3.3985764160 3.4016682129 3.4043854980 3.4032207031 3.4044931641 3.4022067871 3.4009877930 3.4000297852 3.3995568848 3.4011252441 3.4054541016 3.4082993164 3.4103793945 3.4083439941 3.4076982422 3.4051342773 3.4102509766 3.4125522461 3.4111132813 3.4039365234 3.4037207031 3.4076049805 3.4128618164 3.4120993652 3.4098574219 3.4099492188 3.4106108398 3.4111625977 3.4096198730 3.4148513184 3.4179821777 3.4229648437 3.4185673828 3.4215324707 3.4188400879 3.4204938965 3.4195153809 3.4171166992 3.4174094238 3.4177412109 3.4160092773 3.4140312500 3.4132863770 3.4165708008 3.4156743164 3.4154885254 3.4160991211 3.4196779785 3.4165546875 3.4186604004 3.4111274414 3.4060842285 3.4034943848
3.4071105957 3.4048579102 3.4032575684 3.4015725098 3.4027629395 3.4025690918 3.4105146484 3.4158579102 3.4126083984 3.4004418945 3.3984948730 3.4017358398 3.4102924805 3.4112397461 3.4102309570 3.4095981445 3.4029670410 3.3989921875 3.3988330078 3.4024172363 3.4036677246 3.4065788574 3.4075830078 3.4112651367 3.4082854004 3.4076782227 3.4106904297 3.4101672363 3.4092084961 3.4035634766 3.4082202148 3.4118796387 3.4119404297 3.4064426270 3.4007856445 3.4060800781 3.4063767090 3.4024689941 3.4034543457 3.4052585449 3.4057001953 3.4082480469 3.4077966309 3.4088190918 3.4105270996 3.4126823730 3.4079064941 3.4051286621 3.4008371582 3.4038959961 3.4068637695 3.4135769043 3.4193371582 3.4162465820 3.4112597656 3.4089001465 3.4145017090 3.4160212402 3.4114406738 3.4050014648 3.4075288086 3.4128886719 3.4175979004 3.4165827637 3.4125092773 3.4108576660 3.4089501953 3.4095983887 3.4110979004 3.4163479004 3.4178532715 3.4150595703 3.4125756836 3.4146713867 3.4167829590 3.4213010254 3.4205590820 3.4221403809 3.4219316406 3.4201691895 3.4142067871 3.4146179199 3.4144533691 3.4175671387 3.4207331543 3.4269157715 3.4254763184 3.4215029297 3.4234877930 3.4160048828 3.4094653320 3.4073579102 3.4147587891 3.4126291504 3.4077360840 3.4037370605 3.4074152832 3.4116052246 3.4182321777 3.4151899414 3.4108881836 3.4086704102 3.4141584473 3.4146252441 3.4152939453 3.4157158203 3.4176884766 3.4163427734 3.4181042480 3.4186538086 3.4194450684 3.4182580566 3.4150341797 3.4091643066 3.4113386230 3.4142014160 3.4142106934 3.4123076172 3.4147058105 3.4144611816 3.4169323730 3.4136999512 3.4144155273 3.4116157227 3.4177470703 3.4128503418 3.4087976074 3.4077941895 3.4089543457 3.4108679199 3.4131064453 3.4165617676 3.4180520020 3.4176198730 3.4153828125 3.4143859863 3.4132583008 3.4172863770 3.4161831055 3.4162670898 3.4155170898 3.4223129883 3.4184135742 3.4160197754 3.4105957031 3.4113547363 3.4122980957 3.4150783691 3.4168391113 3.4170671387 3.4185671387 3.4203061523 3.4151408691 3.4083720703 3.4110485840 3.4152873535 3.4188757324 3.4151210938 3.4189980469 3.4195000000 3.4164196777 3.4121831055 3.4130192871 3.4158986816 3.4145666504 3.4102851563 3.4115568848 3.4164946289 3.4225244141 3.4222041016 3.4218027344 3.4203044434 3.4199790039 3.4134309082 3.4114572754 3.4117973633 3.4200368652 3.4198889160 3.4189645996 3.4155666504 3.4164135742 3.4201069336 3.4221516113 3.4186162109 3.4165356445 3.4147502441 3.4195773926 3.4253469238 3.4287851563 3.4257507324 3.4255300293 3.4265053711 3.4305805664 3.4319523926 3.4327192383 3.4222729492 3.4196574707 3.4199714355 3.4268144531 3.4279824219 3.4253081055 3.4280456543 3.4292304688 3.4305778809 3.4289406738 3.4336977539 3.4346567383 3.4383203125 3.4334611816 3.4302827148 3.4261635742 3.4295036621 3.4336264648 3.4339750977 3.4346884766 3.4329125977 3.4318146973 3.4292512207 3.4307917480 3.4334504395 3.4358979492 3.4351052246 3.4353774414 3.4369736328 3.4378366699 3.4351269531 3.4272155762 3.4220476074 3.4225302734
3.4165693359 3.4132722168 3.4090625000 3.4101892090 3.4146518555 3.4169870605 3.4253969727 3.4302280273 3.4269260254 3.4172487793 3.4160222168 3.4230505371 3.4218337402 3.4224211426 3.4200329590 3.4177580566 3.4152849121 3.4135292969 3.4179609375 3.4183471680 3.4206694336 3.4208632812 3.4214570313 3.4213813477 3.4201647949 3.4213630371 3.4222626953 3.4279011230 3.4256462402 3.4233129883 3.4208400879 3.4238630371 3.4239013672 3.4230534668 3.4213703613 3.4322248535 3.4148464355 3.4229877930 3.4162734375 3.4140043945 3.4188918457 3.4178618164 3.4214877930 3.4187895508 3.4233371582 3.4254501953 3.4218908691 3.4180903320 3.4118513184 3.4153542480 3.4209177246 3.4283977051 3.4268874512 3.4237380371 3.4260092773 3.4266823730 3.4304543457 3.4298652344 3.4249216309 3.4211660156 3.4196704102 3.4227236328 3.4265375977 3.4275554199 3.4276284180 3.4261892090 3.4230571289 3.4247331543 3.4258327637 3.4278811035 3.4270563965 3.4288652344 3.4308708496 3.4318229980 3.4307416992 3.4307121582 3.4298820801 3.4337475586 3.4386040039 3.4367099609 3.4330273438 3.4315222168 3.4325949707 3.4306989746 3.4292519531 3.4315473633 3.4313864746 3.4327734375 3.4367087402 3.4361752930 3.4294265137 3.4271513672 3.4258593750 3.4238571777 3.4196105957 3.4188186035 3.4231098633 3.4275927734 3.4339709473 3.4305498047 3.4270756836 3.4232980957 3.4293022461 3.4289628906 3.4321569824 3.4307900391 3.4318332520 3.4323386230 3.4296594238 3.4312873535 3.4292878418 3.4314128418 3.4291916504 3.4275949707 3.4288061523 3.4318837891 3.4343120117 3.4343334961 3.4348723145 3.4302468262 3.4279689941 3.4251584473 3.4256684570 3.4260546875 3.4320158691 3.4331943359 3.4262766113 3.4222758789 3.4221772461 3.4258291016 3.4267319336 3.4311003418 3.4300786133 3.4307055664 3.4299641113 3.4279899902 3.4267680664 3.4309858398 3.4318547363 3.4321279297 3.4288449707 3.4315546875 3.4297331543 3.4217536621 3.4233078613 3.4271965332 3.4346848145 3.4308183594 3.4267956543 3.4275102539 3.4293410645 3.4295554199 3.4256154785 3.4221166992 3.4251174316 3.4288769531 3.4300620117 3.4271552734 3.4296013184 3.4321889648 3.4328122559 3.4266906738 3.4251196289 3.4263967285 3.4269792480 3.4259616699 3.4275363770 3.4345092773 3.4386127930 3.4396667480 3.4363374023 3.4330656738 3.4311000977 3.4268930664 3.4273647461 3.4309291992 3.4338627930 3.4364401855 3.4332705078 3.4334494629 3.4321433105 3.4350759277 3.4382639160 3.4361599121 3.4321108398 3.4304606934 3.4394926758 3.4456599121 3.4434875488 3.4356696777 3.4357561035 3.4409160156 3.4450109863 3.4457641602 3.4460620117 3.4393845215 3.4367893066 3.4338398437 3.4414013672 3.4405734863 3.4414719238 3.4391215820 3.4404760742 3.4451228027 3.4462048340 3.4471088867 3.4470014648 3.4518566895 3.4508708496 3.4457167969 3.4408996582 3.4441384277 3.4446555176 3.4489941406 3.4476865234 3.4496364746 3.4458588867 3.4460847168 3.4449477539 3.4448415527 3.4456298828 3.4462006836 3.4436252441 3.4473625488 3.4484609375 3.4495786133 3.4431992188 3.4398647461 3.4422907715
3.4294362793 3.4269619141 3.4253051758 3.4228308105 3.4283171387 3.4331425781 3.4353972168 3.4353850098 3.4349946289 3.4296999512 3.4315805664 3.4358566895 3.4426059570 3.4394663086 3.4383195801 3.4373847656 3.4410319824 3.4399433594 3.4397998047 3.4358840332 3.4424150391 3.4417248535 3.4405395508 3.4366743164 3.4356018066 3.4344094238 3.4381582031 3.4418605957 3.4470744629 3.4432045898 3.4396125488 3.4327189941 3.4303937988 3.4322026367 3.4378876953 3.4510917969 3.4514389648 3.4467160645 3.4386933594 3.4316313477 3.4311547852 3.4282480469 3.4333120117 3.4332441406 3.4397897949 3.4383215332 3.4363791504 3.4318701172 3.4297058105 3.4367514648 3.4410109863 3.4427692871 3.4376901855 3.4359411621 3.4423010254 3.4429531250 3.4435388184 3.4425690918 3.4412573242 3.4381701660 3.4329033203 3.4320803223 3.4359506836 3.4412631836 3.4446687012 3.4424438477 3.4385913086 3.4385590820 3.4423601074 3.4449003906 3.4467810059 3.4492060547 3.4498637695 3.4479821777 3.4432502441 3.4439167480 3.4428862305 3.4469370117 3.4519519043 3.4523811035 3.4539982910 3.4507766113 3.4503735352 3.4421520996 3.4430415039 3.4460278320 3.4471604004 3.4529567871 3.4565139160 3.4547741699 3.4512070313 3.4467548828 3.4437109375 3.4397797852 3.4366469727 3.4388967285 3.4410515137 3.4437182617 3.4482846680 3.4465019531 3.4458120117 3.4404392090 3.4435490723 3.4422416992 3.4464228516 3.4454453125 3.4481430664 3.4464006348 3.4445903320 3.4440087891 3.4438374023 3.4444035645 3.4446884766 3.4429375000 3.4427233887 3.4431520996 3.4507949219 3.4575092773 3.4544775391 3.4472846680 3.4413784180 3.4406630859 3.4408879395 3.4429550781 3.4473513184 3.4484821777 3.4443081055 3.4426872559 3.4418923340 3.4450776367 3.4443181152 3.4488815918 3.4472719727 3.4458652344 3.4386315918 3.4411066895 3.4383417969 3.4485969238 3.4528459473 3.4530715332 3.4475456543 3.4485900879 3.4449013672 3.4399731445 3.4391826172 3.4491479492 3.4543654785 3.4488208008 3.4427600098 3.4430180664 3.4460415039 3.4480625000 3.4441586914 3.4425737305 3.4423820801 3.4449780273 3.4451984863 3.4410107422 3.4414384766 3.4443476563 3.4501735840 3.4476308594 3.4437197266 3.4431196289 3.4443374023 3.4463422852 3.4522209473 3.4573037109 3.4584438477 3.4586137695 3.4535031738 3.4492810059 3.4453559570 3.4421423340 3.4457600098 3.4480397949 3.4519033203 3.4527646484 3.4521308594 3.4553679199 3.4525480957 3.4553671875 3.4535258789 3.4519528809 3.4492133789 3.4494304199 3.4578354492 3.4640942383 3.4617077637 3.4531013184 3.4514040527 3.4565014648 3.4616555176 3.4607177734 3.4599318848 3.4560715332 3.4570112305 3.4563632813 3.4596862793 3.4567150879 3.4592692871 3.4564213867 3.4560319824 3.4600065918 3.4656723633 3.4668513184 3.4672553711 3.4702575684 3.4698596191 3.4637609863 3.4581740723 3.4596118164 3.4620241699 3.4643376465 3.4642629395 3.4648774414 3.4651765137 3.4644804688 3.4639299316 3.4607949219 3.4619909668 3.4610725098 3.4596975098 3.4598444824 3.4612268066 3.4629948730 3.4638906250 3.4633935547 3.4628750000
3.4405156250 3.4477407227 3.4461599121 3.4438823242 3.4443002930 3.4446188965 3.4464475098 3.4415102539 3.4387084961 3.4419169922 3.4452707520 3.4548479004 3.4574501953 3.4570927734 3.4497175293 3.4486904297 3.4548120117 3.4544904785 3.4535349121 3.4525656738 3.4566801758 3.4525192871 3.4485898438 3.4446809082 3.4480219727 3.4510068359 3.4516608887 3.4546599121 3.4564252930 3.4549997559 3.4497976074 3.4466655273 3.4437360840 3.4471135254 3.4496625977 3.4522641602 3.4539733887 3.4505063477 3.4515991211 3.4419133301 3.4435795898 3.4406496582 3.4480434570 3.4493837891 3.4546350098 3.4525468750 3.4528337402 3.4478239746 3.4491135254 3.4505170898 3.4547363281 3.4544545898 3.4511357422 3.4518376465 3.4530732422 3.4526188965 3.4485095215 3.4507592773 3.4517687988 3.4498815918 3.4414589844 3.4390004883 3.4431071777 3.4530009766 3.4553613281 3.4561835938 3.4519555664 3.4542089844 3.4591752930 3.4643742676 3.4643852539 3.4615295410 3.4583632813 3.4578610840 3.4556860352 3.4566713867 3.4556352539 3.4590039062 3.4639079590 3.4653129883 3.4673234863 3.4675402832 3.4634904785 3.4524824219 3.4503781738 3.4571755371 3.4616083984 3.4654187012 3.4659953613 3.4635776367 3.4591127930 3.4579562988 3.4541801758 3.4528977051 3.4526118164 3.4598178711 3.4617624512 3.4588100586 3.4587736816 3.4559658203 3.4556296387 3.4522333984 3.4560490723 3.4544724121 3.4581601562 3.4558627930 3.4587626953 3.4595734863 3.4591953125 3.4596059570 3.4563837891 3.4575703125 3.4540036621 3.4568874512 3.4589189453 3.4610388184 3.4647534180 3.4671901855 3.4649426270 3.4590700684 3.4537626953 3.4548786621 3.4545520020 3.4567727051 3.4558881836 3.4587631836 3.4556484375 3.4576489258 3.4544433594 3.4584960938 3.4566513672 3.4612377930 3.4574240723 3.4538210449 3.4531188965 3.4523635254 3.4538894043 3.4594108887 3.4676948242 3.4675881348 3.4617556152 3.4562270508 3.4566455078 3.4557634277 3.4597651367 3.4616228027 3.4638059082 3.4627111816 3.4608410645 3.4586315918 3.4581999512 3.4591909180 3.4586525879 3.4565397949 3.4553630371 3.4548063965 3.4565732422 3.4570361328 3.4578635254 3.4618093262 3.4664638672 3.4684301758 3.4684235840 3.4670776367 3.4670007324 3.4667678223 3.4696171875 3.4735529785 3.4687954102 3.4694536133 3.4649167480 3.4643613281 3.4612021484 3.4614846191 3.4641437988 3.4639836426 3.4648442383 3.4681098633 3.4677363281 3.4725397949 3.4724135742 3.4729257813 3.4684719238 3.4673125000 3.4693427734 3.4704262695 3.4719831543 3.4754074707 3.4735024414 3.4675688477 3.4651013184 3.4712973633 3.4740451660 3.4721025391 3.4721787109 3.4711518555 3.4743610840 3.4754265137 3.4757270508 3.4709775391 3.4716088867 3.4702221680 3.4690886230 3.4712526855 3.4743989258 3.4759277344 3.4773945312 3.4804145508 3.4797392578 3.4756052246 3.4710734863 3.4726413574 3.4777500000 3.4810788574 3.4817563477 3.4822719727 3.4825249023 3.4799509277 3.4745173340 3.4732460938 3.4711416016 3.4717541504 3.4686210937 3.4693942871 3.4676721191 3.4737646484 3.4771516113 3.4821789551 3.4803437500
3.4580612793 3.4593410645 3.4635915527 3.4644694824 3.4634426270 3.4620405273 3.4622246094 3.4544177246 3.4492172852 3.4505432129 3.4610786133 3.4676662598 3.4703881836 3.4679440918 3.4661472168 3.4683068848 3.4728857422 3.4704133301 3.4684274902 3.4676958008 3.4698503418 3.4643371582 3.4618530273 3.4603803711 3.4624423828 3.4636621094 3.4665471191 3.4681228027 3.4713159180 3.4682377930 3.4629487305 3.4594265137 3.4620400391 3.4620341797 3.4635573730 3.4612724609 3.4671682129 3.4631928711 3.4657329102 3.4588107910 3.4596896973 3.4583085937 3.4600942383 3.4641562500 3.4682058105 3.4660056152 3.4675749512 3.4630053711 3.4696735840 3.4670659180 3.4704453125 3.4698498535 3.4718703613 3.4696872559 3.4645339355 3.4607897949 3.4590380859 3.4634580078 3.4682150879 3.4662404785 3.4588703613 3.4541428223 3.4602626953 3.4683427734 3.4727233887 3.4737160645 3.4717736816 3.4750676270 3.4751293945 3.4795390625 3.4792929688 3.4773918457 3.4729421387 3.4737509766 3.4748381348 3.4754287109 3.4738088379 3.4735864258 3.4773479004 3.4750791016 3.4757573242 3.4782407227 3.4782770996 3.4713039551 3.4703474121 3.4778930664 3.4795744629 3.4811342773 3.4778413086 3.4758593750 3.4713061523 3.4745644531 3.4754467773 3.4735146484 3.4693776855 3.4718488770 3.4742167969 3.4741025391 3.4756162109 3.4720769043 3.4708178711 3.4695012207 3.4751936035 3.4756818848 3.4740444336 3.4720512695 3.4748845215 3.4789968262 3.4804494629 3.4808671875 3.4791335449 3.4769255371 3.4725600586 3.4714467773 3.4742846680 3.4778728027 3.4802355957 3.4778762207 3.4702336426 3.4670344238 3.4660417480 3.4712351074 3.4726264648 3.4732180176 3.4727185059 3.4751176758 3.4733205566 3.4756193848 3.4727773438 3.4761616211 3.4742253418 3.4758911133 3.4724326172 3.4684396973 3.4688229980 3.4692426758 3.4703364258 3.4740668945 3.4827102051 3.4847631836 3.4809714355 3.4777177734 3.4785869141 3.4804414063 3.4810859375 3.4774833984 3.4771862793 3.4798964844 3.4824079590 3.4784221191 3.4757446289 3.4744348145 3.4754042969 3.4741113281 3.4731071777 3.4695263672 3.4697031250 3.4697663574 3.4732832031 3.4752412109 3.4795993652 3.4806235352 3.4810976563 3.4824536133 3.4831328125 3.4823105469 3.4837636719 3.4884440918 3.4847736816 3.4827358398 3.4780363770 3.4778012695 3.4769250488 3.4777922363 3.4819353027 3.4830471191 3.4861953125 3.4867661133 3.4858837891 3.4885407715 3.4904226074 3.4928779297 3.4847263184 3.4842814941 3.4838085938 3.4872321777 3.4864360352 3.4896557617 3.4942949219 3.4904028320 3.4893054199 3.4867961426 3.4879040527 3.4840014648 3.4855263672 3.4873227539 3.4923391113 3.4923254395 3.4909704590 3.4899653320 3.4898972168 3.4913935547 3.4867158203 3.4883195801 3.4903295898 3.4897802734 3.4902697754 3.4929682617 3.4921579590 3.4901098633 3.4895075684 3.4940366211 3.4986750488 3.5009577637 3.5017233887 3.5016938477 3.5013361816 3.4976630859 3.4947580566 3.4899560547 3.4913122559 3.4886394043 3.4881892090 3.4838940430 3.4832844238 3.4898808594 3.4972416992 3.5015080566 3.4983164063
