2.0557114258 2.0687412109 2.0754353027 2.0750844727 2.0822026367 2.0860532227 2.0941342773 2.1001826172 2.1022912598 2.0978984375 2.0995229492 2.1023774414 2.0994990234 2.0897214355 2.0938540039 2.0959599609 2.1020229492 0.0000000000 0.0000000000 0.0000000000 0.0000000000 0.0000000000 0.7782509155 0.7750610962 0.7803095703 0.7888740845 0.7944589844 0.7990870361 0.7978956299 0.7955440063 0.7952405396 0.7954746704 0.7966777954 0.7997322388 0.8032414551 0.8089591675 0.8057893066 0.8085258789 0.8103579712 0.8116047363 0.8106074219 0.8069573364 0.8084210815 0.8153112793 0.8217579346 0.8207567139 0.8176350708 0.8160573730 0.8192854004 0.8240810547 0.8209600220 0.8188952026 0.8214840088 0.8259143066 0.8300144653 0.8326401978 0.8302240601 0.8285780029 0.8287696533 0.8307721558 0.8307313232 0.8301322632 0.8299032593 0.8275371704 0.8226275024 0.8153295288 0.7971412354 0.0000000000 0.6542278442 0.6413356323 0.6699205322 0.6651088257 0.6653940430 0.6657136841 0.6660717773 0.6654520264 0.6651350098 0.6654514160 0.6660365601 0.6667219849 0.6677670288 0.6682159424 0.6678153076 0.6671914673 0.6671525269 0.6675269165 0.6689883423 0.6683955078 0.6685028076 0.6689604492 0.6712008667 0.6707003784 0.6698055420 0.6691912231 0.6698054199 0.6698770752 0.6706373291 0.6719436035 0.6728325806 0.6725170288 0.6716712036 0.6728310547 0.6732165527 0.6726742554 0.6725592651 0.6727368164 0.6735151367 0.6728353271 0.6733845215 0.6735955200 0.6748557739 0.6747681274 0.6757444458 0.6749460449 0.6753328247 0.6733313599 0.6725987549 0.6724040527 0.6749888306 0.6759155884 0.6759783936 0.6752920532 0.6759533081 0.6771669922 0.6782384033 0.6784737549 0.6786953125 0.6777411499 0.6767642212 0.6768427124 0.6771724854 0.6793796997 0.6783652344 0.6796356812 0.6789475098 0.6809544067 0.6805940552 0.6809273071 0.6820646362 0.6812994385 0.6819682617 0.6793218994 0.6794020386 0.6786436768 0.6806646729 0.6813210449 0.6828559570 0.6824990234 0.6814842529 0.6807265625 0.6811133423 0.6819530640 0.6817772827 0.6829849854 0.6833470459 0.6841072388 0.6848220215 0.6881713867 0.6881479492 0.6881885376 0.6872656250 0.6898336182 0.6941177368 0.7091795044 0.7323903809 0.7547041626 0.7818387451 0.8212277832 0.8863677368 0.9209649658 0.9262915039 0.9260906372 0.9279436035 0.9302319946 0.9333656006 0.9344956055 0.9365963135 0.9389929810 0.9408468018 0.9425299683 0.9434127197 0.9453284912 0.9458193970 0.9479570312 0.9509475708 0.9527191772 0.9523790283 0.9515610352 0.9529188843 0.9538275146 0.9542380981 0.9558879395 0.9595778198 0.9595146484 0.9601996460 0.9624185181 0.9669322510 0.9688515015 0.9713889771 0.9736500854 0.9762192993 0.9761272583 0.9753656006 0.9733222046 0.9715911865 0.9689492188 0.9673332520 0.9542046509 0.9294457397 0.9285371094 0.9184217529 0.0000000000 0.7497183838 0.7210705566 0.7139548950 0.7124916992 0.7114807739 0.7119542236 0.7120088501 0.7126038818 0.7122171021 0.7124725952 0.7120440063 0.7132833252 0.7140777588 0.7155397339 0.7148641357 0.7143622437 0.7132422485
2.0532773438 2.0620515137 2.0679833984 2.0660891113 2.0720786133 2.0724389648 0.0000000000 0.0000000000 2.0790793457 0.0000000000 0.0000000000 0.0000000000 0.0000000000 0.7530877686 0.7589321289 0.7580261230 0.7535155029 0.7600068970 0.7608630371 0.7626606445 0.7626892700 0.7611179810 0.7607977905 0.7663930054 0.7735103149 0.7774697266 0.7807405396 0.7798057251 0.7797820435 0.7731804810 0.7706437378 0.7719335938 0.7744698486 0.7823438110 0.7792471924 0.7777666016 0.7797299805 0.7802104492 0.7816953125 0.7813045654 0.7784626465 0.7772257080 0.7823132324 0.7833681641 0.7925611572 0.7921407471 0.7859113159 0.7888671875 0.7914128418 0.7924503174 0.7913711548 0.7885977173 0.7893958130 0.7951481934 0.7965489502 0.8004217529 0.8007398682 0.8025885010 0.8025081787 0.8035687866 0.8012977295 0.7987927856 0.7958856812 0.7931677856 0.7889153442 0.7821254272 0.7744483643 0.0000000000 0.0000000000 0.6424624023 0.6624990845 0.6620629272 0.6642520752 0.6645194092 0.6662916260 0.6663461304 0.6663326416 0.6657617188 0.6647916260 0.6649172974 0.6658776855 0.6673858032 0.6677910156 0.6666021118 0.6670354004 0.6667836914 0.6689049683 0.6669168091 0.6679899902 0.6675209961 0.6706160278 0.6696447144 0.6703560791 0.6701934814 0.6710695190 0.6698287354 0.6699328003 0.6699302368 0.6710793457 0.6699164429 0.6702000122 0.6712229004 0.6726388550 0.6724741821 0.6731405029 0.6724437866 0.6728428955 0.6722379150 0.6732970581 0.6742741089 0.6756402588 0.6758979492 0.6756437988 0.6736156616 0.6723876953 0.6717102661 0.6726013184 0.6740287476 0.6757619019 0.6753575439 0.6750275269 0.6732475586 0.6744202271 0.6755172119 0.6775624390 0.6772064209 0.6768460693 0.6757114868 0.6750673828 0.6755002441 0.6764792480 0.6787667236 0.6784745483 0.6788369751 0.6785629272 0.6796138306 0.6789722900 0.6782625732 0.6793298340 0.6788417969 0.6797077026 0.6774989624 0.6778775635 0.6774605713 0.6790988159 0.6797125244 0.6810608521 0.6802808838 0.6800000610 0.6789988403 0.6803408203 0.6805583496 0.6811221924 0.6811105957 0.6820682373 0.6827975464 0.6844472656 0.6878611450 0.6885539551 0.6882069702 0.6874916382 0.6898970337 0.6953314819 0.7081430054 0.7303027954 0.7518360596 0.7778837891 0.8063285522 0.8506702271 0.8811796265 0.8874094238 0.8886239624 0.8915781250 0.8928420410 0.8961942139 0.8997231445 0.9047424927 0.9073345337 0.9075540161 0.9078066406 0.9102116699 0.9122684937 0.9133433838 0.9137780762 0.9167244873 0.9161575317 0.9164763184 0.9113161011 0.9026980591 0.8986098022 0.9013192139 0.9158110962 0.9275587769 0.9278270874 0.9300147705 0.9323762817 0.9368663940 0.9390759277 0.9391897583 0.9400491333 0.9439317017 0.9423986816 0.9413854370 0.9388320313 0.9377293701 0.9331903076 0.9249970703 0.9043212280 0.8822509155 0.8948016357 0.8871511841 0.0000000000 0.7420759888 0.7202451782 0.7138978271 0.7104892578 0.7091066284 0.7092095337 0.7109498291 0.7114508667 0.7117216797 0.7108978882 0.7107056274 0.7110222778 0.7108221436 0.7110368652 0.7108322754 0.7110130615 0.7109080811
0.0000000000 0.0000000000 0.0000000000 0.0000000000 0.0000000000 0.0000000000 0.0000000000 0.7321624756 0.7244447632 0.7167625732 0.7170937500 0.7284819946 0.7377830811 0.7423053589 0.7512727661 0.7475374756 0.7485339355 0.7427457886 0.7466590576 0.7454999390 0.7512573242 0.7511206665 0.7490305786 0.7531209717 0.7567052612 0.7596370239 0.7611006470 0.7607885132 0.7559899902 0.7473759766 0.7409981079 0.7404613647 0.7466520386 0.7517867432 0.7464893188 0.7458311157 0.7469782715 0.7505977783 0.7461000366 0.7453794556 0.7482441406 0.7511477661 0.7534697876 0.7557293701 0.7583331909 0.7607713013 0.7626264038 0.7646300659 0.7656956787 0.7678893433 0.7637545776 0.7648126221 0.7644118652 0.7680385132 0.7676242065 0.7679548340 0.7698214722 0.7690396118 0.7667022705 0.7699852295 0.7732635498 0.7713389282 0.7699773560 0.7667507935 0.7651214600 0.7639700928 0.7610885010 0.7580392456 0.7407107544 0.6567342529 0.6671722412 0.6660325928 0.6655788574 0.6645228882 0.6655307007 0.6665148926 0.6673861694 0.6667938843 0.6655842896 0.6660343628 0.6668249512 0.6694830933 0.6695773315 0.6684577637 0.6673223877 0.6670593262 0.6680924683 0.6673598022 0.6682744141 0.6685318604 0.6703859253 0.6696461792 0.6707346802 0.6708920898 0.6717730713 0.6698505249 0.6695419312 0.6696953125 0.6703424683 0.6701420898 0.6705940552 0.6712429810 0.6722794189 0.6728300171 0.6740551758 0.6736656494 0.6736885986 0.6736976318 0.6745262451 0.6744518433 0.6754794312 0.6759244995 0.6759130859 0.6741083984 0.6726822510 0.6729216919 0.6745467529 0.6760943604 0.6763829956 0.6756752319 0.6753825073 0.6753343506 0.6757082520 0.6766552124 0.6772797241 0.6769970093 0.6762718506 0.6764157104 0.6773268433 0.6779431763 0.6783134155 0.6802824097 0.6810726929 0.6813133545 0.6801745605 0.6809914551 0.6819489136 0.6817623291 0.6819062500 0.6809175415 0.6814091797 0.6801596069 0.6797216797 0.6787499390 0.6796679688 0.6809223633 0.6831591797 0.6834465942 0.6832066040 0.6814648438 0.6816920776 0.6828818359 0.6841869507 0.6843910522 0.6843441162 0.6842420654 0.6849670410 0.6875278320 0.6892886353 0.6898109131 0.6894201050 0.6911110229 0.6960584106 0.7087437134 0.7311508179 0.7521566772 0.7766950073 0.7996493530 0.8262067261 0.8470184326 0.8546972656 0.8601418457 0.8653801270 0.8658226318 0.8693738403 0.8745175171 0.8792966309 0.8797280273 0.8791582031 0.8797258301 0.8837782593 0.8843723755 0.8855761108 0.8855892334 0.8860213013 0.8811882324 0.8812819214 0.8753157349 0.8657246094 0.8625850830 0.8661422729 0.8745693359 0.8822866821 0.8865502930 0.8936719360 0.8952780151 0.8970267944 0.8993752441 0.8994348755 0.8992728882 0.9004558716 0.9015379639 0.9020742798 0.9009562378 0.8988033447 0.8923110352 0.8846059570 0.8691657104 0.8448988037 0.8547561646 0.8502686768 0.8090224609 0.7379109497 0.7194937134 0.7134408569 0.7101868286 0.7094866333 0.7107084961 0.7121311035 0.7115053711 0.7110715332 0.7112701416 0.7118805542 0.7125882568 0.7126987305 0.7136250000 0.7127987061 0.7128280640 0.7118962402
0.6717420654 0.6852322388 0.7008323975 0.6912163086 0.7143675537 0.7294954224 0.7280776367 0.6945609131 0.6983453979 0.6936647339 0.7048902588 0.7070229492 0.7148276978 0.7174225464 0.7220337524 0.7228183594 0.7210235596 0.7195740967 0.7164920044 0.7200989990 0.7272813721 0.7293234863 0.7253525391 0.7231120605 0.7247600098 0.7201624146 0.7221456909 0.7270561523 0.7235774536 0.7206309204 0.7157821045 0.7114949951 0.7144019165 0.7189351196 0.7176076660 0.7152421875 0.7166750488 0.7177508545 0.7156866455 0.7177165527 0.7204257202 0.7222811890 0.7229686890 0.7250040894 0.7271569824 0.7307370605 0.7321947021 0.7329566040 0.7376495361 0.7390629272 0.7382355957 0.7380543213 0.7364789429 0.7393478394 0.7351462402 0.7355623779 0.7363739624 0.7389389038 0.7354107056 0.7369005737 0.7423872070 0.7448870850 0.7454470825 0.7445737915 0.7460300293 0.7463013916 0.7462389526 0.7436004028 0.7325095825 0.6900478516 0.6684937744 0.6643778076 0.6647172852 0.6639307861 0.6646400146 0.6648815918 0.6646334839 0.6643618164 0.6637772827 0.6647707520 0.6666357422 0.6679301147 0.6688703613 0.6666006470 0.6662952271 0.6652489014 0.6669929199 0.6675864258 0.6690671997 0.6688568726 0.6692059326 0.6684395142 0.6695656128 0.6699324341 0.6705486450 0.6680543823 0.6684780273 0.6686588745 0.6706176147 0.6690581055 0.6693205566 0.6698125000 0.6725939941 0.6734757690 0.6744719238 0.6724216919 0.6727625122 0.6730462036 0.6745179443 0.6729947510 0.6732341309 0.6741488647 0.6764017944 0.6748180542 0.6734135742 0.6728452759 0.6751319580 0.6761004028 0.6754067993 0.6734794312 0.6737744141 0.6746259155 0.6760854492 0.6763222656 0.6766239624 0.6764331665 0.6765569458 0.6763369751 0.6774925537 0.6775888062 0.6784218140 0.6784206543 0.6790169678 0.6784249878 0.6785460815 0.6795715332 0.6810036621 0.6808623047 0.6807177124 0.6800043945 0.6798399048 0.6790917358 0.6791279297 0.6785971680 0.6787052002 0.6792386475 0.6809841309 0.6808395386 0.6818126221 0.6807777710 0.6820876465 0.6823644409 0.6835091553 0.6837776489 0.6835949707 0.6832659912 0.6832457886 0.6844554443 0.6862359009 0.6873740234 0.6877138062 0.6898365479 0.6944499512 0.7095521851 0.7302852173 0.7496071167 0.7713627930 0.7895498657 0.8026413574 0.8112750854 0.8170797119 0.8208429565 0.8240479736 0.8246881104 0.8278494873 0.8317010498 0.8338951416 0.8340068970 0.8329194336 0.8321556396 0.8356229248 0.8389960938 0.8407814941 0.8443190918 0.8451845703 0.8423703613 0.8434433594 0.8481892700 0.8469010010 0.8478010254 0.8495040283 0.8533355713 0.8544738770 0.8572496948 0.8563940430 0.8572769775 0.8584714966 0.8586142578 0.8579713745 0.8559190063 0.8582288818 0.8593585205 0.8627177734 0.8622630005 0.8593138428 0.8537722168 0.8420706787 0.8278516235 0.8177180176 0.8241660156 0.8226147461 0.7876802979 0.7323170776 0.7163317261 0.7124382324 0.7096343384 0.7078172607 0.7076847534 0.7089343872 0.7098279419 0.7099495850 0.7103193970 0.7111353760 0.7118101196 0.7125249634 0.7120390625 0.7116779175 0.7115668335 0.7128859253
0.6701668091 0.6679579468 0.6668613281 0.6776395874 0.6882896118 0.7001731567 0.6860900879 0.6731227417 0.6687861328 0.6749483032 0.6756895142 0.6855538940 0.6889643555 0.6916887207 0.7023327637 0.7029533691 0.7013817139 0.6991930542 0.7000744019 0.7032933350 0.7089924927 0.7062387085 0.7001098022 0.6990911865 0.6992305908 0.7022536621 0.6985034180 0.7025886230 0.7039960938 0.7037681885 0.6991113281 0.6980715332 0.7006706543 0.7008588867 0.7013043823 0.7018699951 0.7036469727 0.7049887085 0.7060762939 0.7088645630 0.7104659424 0.7117695923 0.7105245972 0.7082639160 0.7085416870 0.7068220825 0.7081005859 0.7090668945 0.7139954224 0.7138801880 0.7142043457 0.7148749390 0.7164979858 0.7185592041 0.7180269775 0.7199964600 0.7193500366 0.7206470337 0.7183768311 0.7178948975 0.7199530640 0.7220409546 0.7222369995 0.7224758301 0.7265636597 0.7274629517 0.7275253906 0.7245093384 0.7177755737 0.6981779175 0.6766848145 0.6687972412 0.6669031372 0.6661084595 0.6648945312 0.6654317627 0.6639207764 0.6641908569 0.6638538818 0.6665051270 0.6680910034 0.6691397095 0.6686627808 0.6673021240 0.6663484497 0.6667214966 0.6678746338 0.6697752075 0.6702852173 0.6709007568 0.6699821167 0.6697908936 0.6695892944 0.6697800903 0.6695338135 0.6678219604 0.6686348877 0.6707304687 0.6729331665 0.6719369507 0.6706641846 0.6708475952 0.6725070190 0.6736082764 0.6749431152 0.6740294800 0.6745618896 0.6745702515 0.6755743408 0.6733084106 0.6725823364 0.6732121582 0.6752128906 0.6754089966 0.6755665283 0.6760553589 0.6764636230 0.6766718750 0.6757869873 0.6755916138 0.6765557861 0.6780298462 0.6787460938 0.6777171021 0.6774745483 0.6778977051 0.6783367310 0.6782285767 0.6785880737 0.6788044434 0.6786375122 0.6782343750 0.6784536743 0.6789248657 0.6800014648 0.6807440186 0.6821831055 0.6817691650 0.6822090454 0.6812593384 0.6806787720 0.6806406250 0.6809215698 0.6811940308 0.6806436157 0.6809887695 0.6828893433 0.6830490723 0.6842626953 0.6826492310 0.6833372803 0.6843167114 0.6849277954 0.6856545410 0.6852380981 0.6850949097 0.6843404541 0.6849932861 0.6866113892 0.6889387817 0.6894324341 0.6916391602 0.6944936523 0.7087077637 0.7298529663 0.7473815918 0.7650935059 0.7796032104 0.7875022583 0.7918620605 0.7957150269 0.7973023071 0.7984683228 0.7991456909 0.8003741455 0.8005371094 0.8011523437 0.8020855103 0.8023277588 0.8033071899 0.8030893555 0.8031605835 0.8070777588 0.8100149536 0.8127236938 0.8099649048 0.8105954590 0.8194216309 0.8273026733 0.8312962036 0.8320494995 0.8319274292 0.8278266602 0.8255108032 0.8229251099 0.8216794434 0.8205188599 0.8214529419 0.8198657227 0.8174891968 0.8185572510 0.8194736938 0.8213621826 0.8199026489 0.8206277466 0.8192118530 0.8136861572 0.8044279175 0.8017005005 0.8023473511 0.7997387085 0.7746735229 0.7308538818 0.7159959106 0.7114644775 0.7105656128 0.7092036743 0.7094901123 0.7094058228 0.7109024658 0.7107596436 0.7110941772 0.7115134888 0.7129857788 0.7141581421 0.7145721436 0.7133789673 0.7137094727 0.7138344116
0.6574514771 0.6583425903 0.6557334595 0.6547560425 0.6620269165 0.6681461182 0.6581571655 0.6497198486 0.6481252441 0.6417017212 0.6466218872 0.6551762085 0.6618787231 0.6701994629 0.6781275024 0.6835337524 0.6783740234 0.6772660522 0.6791314697 0.6865816040 0.6886793823 0.6840482178 0.6732273560 0.6768546143 0.6810546875 0.6817278442 0.6759006958 0.6807504272 0.6856881714 0.6895286255 0.6863842163 0.6875669556 0.6890975342 0.6910131836 0.6910642700 0.6916101685 0.6915410767 0.6933203125 0.6957203369 0.6971598511 0.6945595093 0.6921193237 0.6893229370 0.6855986328 0.6844874268 0.6836643066 0.6843619385 0.6853094482 0.6915820313 0.6919503174 0.6940025024 0.6951851807 0.6995269775 0.7017229004 0.7034904785 0.7046296997 0.7027309570 0.7026657715 0.7014631958 0.6988900146 0.6982033691 0.6986160889 0.7007849731 0.7027496948 0.7057625122 0.7064619141 0.7053695068 0.7046121826 0.7037134399 0.6966848145 0.6805506592 0.6656759644 0.6653376465 0.6655715332 0.6655291748 0.6662323608 0.6640264282 0.6636531372 0.6625064087 0.6641612549 0.6652055664 0.6647604370 0.6654234009 0.6652942505 0.6658618164 0.6652677612 0.6666887207 0.6679802856 0.6696678467 0.6695391846 0.6694925537 0.6692572021 0.6693423462 0.6693665771 0.6689959717 0.6678829346 0.6680033569 0.6697853394 0.6713983154 0.6702077637 0.6694340210 0.6701185913 0.6720199585 0.6722549438 0.6736494751 0.6737949219 0.6746241455 0.6738646240 0.6742043457 0.6726234741 0.6724086304 0.6724231567 0.6740638428 0.6740867920 0.6743657837 0.6747664185 0.6743781128 0.6756000977 0.6751290894 0.6761602783 0.6774039917 0.6780359497 0.6783706055 0.6768638306 0.6770921631 0.6771381836 0.6771915283 0.6767743530 0.6762735596 0.6764874878 0.6767119141 0.6762227173 0.6758308105 0.6755984497 0.6774638672 0.6786633301 0.6792466431 0.6784472656 0.6781914673 0.6774880981 0.6772438354 0.6778658447 0.6790104980 0.6800906372 0.6798660889 0.6804272461 0.6815622559 0.6814919434 0.6827961426 0.6815963745 0.6827207642 0.6827179565 0.6828937378 0.6830578003 0.6834667969 0.6840978394 0.6841860352 0.6849584961 0.6855302734 0.6874163818 0.6878956299 0.6907827148 0.6935221558 0.7064528198 0.7238459473 0.7383066406 0.7535542603 0.7635878906 0.7683663940 0.7715915527 0.7745104980 0.7749810181 0.7748786621 0.7749552612 0.7759715576 0.7780961914 0.7793953857 0.7804730835 0.7820326538 0.7816556396 0.7779326172 0.7753298340 0.7761344604 0.7818832397 0.7840994263 0.7833714600 0.7849692383 0.7889198608 0.7929291382 0.7952819824 0.7971907349 0.7980128784 0.7947767944 0.7927694092 0.7914435425 0.7931074829 0.7927121582 0.7924856567 0.7914379272 0.7911882935 0.7928572998 0.7932007446 0.7933722534 0.7935516968 0.7955123901 0.7961734009 0.7948124390 0.7919295654 0.7884541016 0.7859315186 0.7808682861 0.7612675171 0.7288219604 0.7141422119 0.7100570679 0.7085989380 0.7083264160 0.7085384521 0.7082512817 0.7104199219 0.7101971436 0.7102010498 0.7097523804 0.7106630859 0.7120993652 0.7124501953 0.7125711060 0.7115010986 0.7119390869
0.6405846558 0.6429873047 0.6377847900 0.6397915649 0.6429653931 0.6405018921 0.6367413940 0.6360048218 0.6306948242 0.6277866211 0.6300199585 0.6415010986 0.6477100830 0.6553364868 0.6585939331 0.6604042969 0.6580952148 0.6591148071 0.6619885254 0.6626563721 0.6628072510 0.6549329224 0.6539368896 0.6554236450 0.6602678223 0.6621993408 0.6577918091 0.6620555420 0.6662943726 0.6714604492 0.6700488281 0.6705469971 0.6705110474 0.6733871460 0.6756350098 0.6756746216 0.6743226318 0.6740629883 0.6703656006 0.6746522827 0.6716414795 0.6705956421 0.6708784790 0.6694528809 0.6702111206 0.6698634033 0.6721065674 0.6735439453 0.6774966431 0.6786162720 0.6805690308 0.6817360840 0.6842075806 0.6859132690 0.6868868408 0.6866528320 0.6806665649 0.6806610718 0.6804329834 0.6843876343 0.6825532837 0.6838576050 0.6833553467 0.6843648682 0.6839674683 0.6825335083 0.6869503174 0.6865486450 0.6860861816 0.6820106812 0.6782649536 0.6687572021 0.6675399780 0.6679974976 0.6679583740 0.6694245605 0.6679126587 0.6676392822 0.6660937500 0.6673414307 0.6670114746 0.6670664673 0.6672892456 0.6688760376 0.6678678589 0.6676010132 0.6674566040 0.6683681641 0.6681630249 0.6681643066 0.6688261719 0.6697017212 0.6703141479 0.6699157104 0.6693800049 0.6690975952 0.6684652100 0.6708496094 0.6715297852 0.6729603271 0.6711154785 0.6715532227 0.6721395264 0.6730998535 0.6749396362 0.6755314331 0.6757940674 0.6748374634 0.6744545898 0.6740195313 0.6739291992 0.6742052002 0.6735051880 0.6741753540 0.6737347412 0.6749552002 0.6735222168 0.6750878296 0.6751083374 0.6773240356 0.6788904419 0.6797443237 0.6783759155 0.6769113159 0.6761676636 0.6772601318 0.6767872925 0.6775208130 0.6759290771 0.6765300293 0.6766602173 0.6778585815 0.6778673096 0.6782611084 0.6791781006 0.6800961914 0.6799063721 0.6797197266 0.6794299927 0.6786223145 0.6788366089 0.6806713867 0.6815742188 0.6818184814 0.6808352051 0.6818598022 0.6832266235 0.6830904541 0.6832274780 0.6817737427 0.6833178101 0.6837822876 0.6839439087 0.6834097900 0.6845336304 0.6851158447 0.6851724854 0.6864174805 0.6876250000 0.6895518799 0.6889076538 0.6905906982 0.6928006592 0.7040535278 0.7203990479 0.7316427002 0.7410691528 0.7451859741 0.7483730469 0.7508142700 0.7531783447 0.7531961060 0.7537459106 0.7543717041 0.7551274414 0.7587525635 0.7585073242 0.7610555420 0.7606901245 0.7601487427 0.7564335327 0.7545814209 0.7578817749 0.7600654907 0.7628441772 0.7621218262 0.7655270996 0.7685443726 0.7710073242 0.7718780518 0.7732888794 0.7743506470 0.7730712891 0.7716951294 0.7709364014 0.7720452881 0.7712758789 0.7717413940 0.7708725586 0.7741311646 0.7759638062 0.7773131104 0.7778602295 0.7777614136 0.7785615845 0.7797095337 0.7795948486 0.7782993774 0.7751518555 0.7725975342 0.7670662842 0.7518870239 0.7276060791 0.7151627808 0.7096384277 0.7081508789 0.7080877075 0.7096973877 0.7098554688 0.7117205811 0.7110375366 0.7107250366 0.7104553223 0.7119223022 0.7132616577 0.7149709473 0.7148907471 0.7144189453 0.7122742920
0.6239808960 0.6280270996 0.6263410645 0.6267828369 0.6278188477 0.6257468262 0.6254287720 0.6261224365 0.6231702881 0.6202109375 0.6198708496 0.6246572876 0.6312931519 0.6383659668 0.6408280029 0.6342025757 0.6322653198 0.6381738281 0.6433047485 0.6438960571 0.6390127563 0.6355543823 0.6353699951 0.6391743774 0.6413790283 0.6396546021 0.6353743896 0.6334780273 0.6375084839 0.6399050293 0.6421390991 0.6395966797 0.6412434082 0.6453662720 0.6464040527 0.6478098145 0.6454799805 0.6428482056 0.6426632690 0.6430731201 0.6460324707 0.6489382935 0.6528223877 0.6549657593 0.6564841309 0.6563262329 0.6572075806 0.6581158447 0.6589988403 0.6596899414 0.6589375000 0.6585470581 0.6597694092 0.6594473267 0.6628269653 0.6624702759 0.6594691772 0.6584525757 0.6592117920 0.6621930542 0.6622219238 0.6651434937 0.6664678345 0.6664888306 0.6636824951 0.6634483643 0.6679594727 0.6691329956 0.6678562012 0.6628602905 0.6627662964 0.6608811035 0.6641924438 0.6663905029 0.6687736206 0.6698678589 0.6687777710 0.6683711548 0.6672811890 0.6670723267 0.6669663696 0.6662116699 0.6677553101 0.6693130493 0.6688223877 0.6675512695 0.6671184692 0.6671409912 0.6676360474 0.6670446777 0.6688347168 0.6694533081 0.6706767578 0.6700471191 0.6698427124 0.6696774292 0.6688406982 0.6705316772 0.6711493530 0.6729523315 0.6720260620 0.6724408569 0.6735833130 0.6745941162 0.6754913940 0.6761210938 0.6755842896 0.6754462891 0.6745002441 0.6746626587 0.6756336060 0.6755179443 0.6755894165 0.6755546875 0.6751046753 0.6748743286 0.6739849243 0.6750759277 0.6755267334 0.6767568970 0.6790449219 0.6795972290 0.6783576050 0.6771602173 0.6766903076 0.6781135254 0.6775733032 0.6787095947 0.6770006104 0.6773188477 0.6775391846 0.6793038940 0.6791156006 0.6782611084 0.6780190430 0.6787569580 0.6787279053 0.6778908081 0.6772485962 0.6767815552 0.6786556396 0.6799470825 0.6803627319 0.6797586670 0.6794927368 0.6806708374 0.6822305298 0.6820710449 0.6824952393 0.6816964111 0.6840840454 0.6832549438 0.6831729736 0.6824369507 0.6846229858 0.6848387451 0.6838768921 0.6842191162 0.6853950195 0.6861823730 0.6853730469 0.6862207031 0.6896119995 0.6999813232 0.7111528931 0.7166447754 0.7205599365 0.7223490601 0.7255893555 0.7274096069 0.7297344971 0.7290587769 0.7302991943 0.7316317139 0.7318332520 0.7327346191 0.7323707275 0.7348752441 0.7342754517 0.7350138550 0.7337178345 0.7348413086 0.7369129639 0.7391069336 0.7407622681 0.7400520020 0.7432139893 0.7465028687 0.7491686401 0.7500270996 0.7511842041 0.7528820801 0.7527311401 0.7513541260 0.7489542236 0.7470775146 0.7449619751 0.7446128540 0.7463355713 0.7526877441 0.7545512695 0.7559202271 0.7549854736 0.7558866577 0.7558510132 0.7566318359 0.7556497192 0.7550032959 0.7524020386 0.7499707642 0.7457074585 0.7358670654 0.7212938232 0.7116772461 0.7087603149 0.7083311768 0.7101867676 0.7112679443 0.7115183105 0.7118248291 0.7111921387 0.7108485107 0.7111194458 0.7122752686 0.7126676025 0.7138801880 0.7145720825 0.7140283813 0.7123917847
0.6145092773 0.6127647705 0.6118472290 0.6102840576 0.6112963867 0.6115383911 0.6152222290 0.6150955200 0.6163547363 0.6168286133 0.6186544800 0.6177769165 0.6196226807 0.6234819336 0.6231192017 0.6145077515 0.6126629028 0.6244950562 0.6324001465 0.6358263550 0.6295682983 0.6210338745 0.6174099731 0.6195966187 0.6217276001 0.6172821655 0.6142384033 0.6158147583 0.6201494141 0.6227993774 0.6265510864 0.6266428833 0.6278709106 0.6280729370 0.6293510132 0.6299659424 0.6296676025 0.6307762451 0.6306509399 0.6336172485 0.6354445801 0.6381354980 0.6403876953 0.6428130493 0.6455610352 0.6465540161 0.6453811646 0.6448383789 0.6456941528 0.6464072266 0.6463989258 0.6437305298 0.6444317627 0.6442541504 0.6471180420 0.6470363770 0.6442014160 0.6448002319 0.6451033325 0.6499613647 0.6489283447 0.6522650757 0.6532463989 0.6541278076 0.6538020630 0.6532940674 0.6555491943 0.6563805542 0.6567773437 0.6545991211 0.6560714111 0.6599789429 0.6643326416 0.6671861572 0.6672894287 0.6689074097 0.6683738403 0.6697125854 0.6683203125 0.6684523315 0.6686205444 0.6698811646 0.6701436157 0.6717060547 0.6706690063 0.6704980469 0.6691046143 0.6695187988 0.6692003174 0.6689238281 0.6692460937 0.6695383911 0.6700942383 0.6702434082 0.6705103760 0.6707064209 0.6701973877 0.6715975342 0.6727483521 0.6758041992 0.6731767578 0.6731825562 0.6730621338 0.6767093506 0.6774396362 0.6771868286 0.6758959351 0.6761924438 0.6753289795 0.6757828369 0.6751380005 0.6764370117 0.6759844971 0.6782926636 0.6776235352 0.6781947632 0.6766160889 0.6763836060 0.6768744507 0.6776927490 0.6795548706 0.6803523560 0.6797478638 0.6791382446 0.6779993896 0.6798613892 0.6799347534 0.6821417236 0.6806236572 0.6806281738 0.6802563477 0.6822602539 0.6823273315 0.6808119507 0.6803743286 0.6804281616 0.6805202026 0.6799211426 0.6807503662 0.6812854614 0.6829214478 0.6832063599 0.6832825317 0.6826441040 0.6825609741 0.6825919189 0.6838095093 0.6832779541 0.6839924316 0.6839221191 0.6865233154 0.6856680298 0.6845825806 0.6842493286 0.6865764771 0.6872487183 0.6860184937 0.6862451172 0.6871723633 0.6872393188 0.6859116821 0.6867482910 0.6896619263 0.6981373901 0.7029370117 0.7054010620 0.7050434570 0.7069373169 0.7090258789 0.7111694336 0.7115315552 0.7123737793 0.7140425415 0.7149130859 0.7135569458 0.7122697754 0.7114572754 0.7138878174 0.7132410889 0.7144791870 0.7148221436 0.7142846680 0.7140034180 0.7151940918 0.7176279907 0.7186168213 0.7204548340 0.7225205078 0.7243215942 0.7250921631 0.7260022583 0.7276904297 0.7289338379 0.7281015625 0.7254152222 0.7223758545 0.7207160034 0.7188942261 0.7196406860 0.7236428223 0.7256121826 0.7265532227 0.7259379883 0.7265328369 0.7270835571 0.7276276245 0.7276902466 0.7266406250 0.7260371094 0.7233139038 0.7206331177 0.7174326172 0.7132234497 0.7101583862 0.7081516113 0.7095285034 0.7108709106 0.7105806885 0.7108975830 0.7097655640 0.7090084229 0.7075581055 0.7087612915 0.7103800659 0.7117681274 0.7134534912 0.7152619019 0.7160916748 0.7133294067
0.6026154175 0.5998783569 0.5924505005 0.5875294800 0.5883458252 0.5926999512 0.5987307739 0.5957836304 0.5963266602 0.5982899170 0.6043625488 0.6012095947 0.6023966675 0.5985416870 0.5965334473 0.5965729370 0.6006482544 0.6042866821 0.6122879028 0.6173267822 0.6132968750 0.6035546875 0.6006108398 0.6051295776 0.6059906006 0.6021152344 0.6009548340 0.6046130371 0.6089895020 0.6118639526 0.6127153320 0.6120275879 0.6126715088 0.6140401001 0.6149109497 0.6139188232 0.6135044556 0.6133853149 0.6173266602 0.6192257690 0.6216162720 0.6206889038 0.6215981445 0.6236828613 0.6272619629 0.6276600952 0.6252265625 0.6233278809 0.6231558838 0.6258283691 0.6251598511 0.6236328125 0.6243216553 0.6238714600 0.6263176880 0.6254855347 0.6267510376 0.6286309204 0.6323898315 0.6354786987 0.6372871704 0.6390733032 0.6415023804 0.6425736084 0.6438765869 0.6434243774 0.6440940552 0.6449026489 0.6473416138 0.6460494995 0.6465676270 0.6484417725 0.6514017944 0.6528662109 0.6536450195 0.6562014771 0.6562504272 0.6574235840 0.6568686523 0.6575537109 0.6583323975 0.6589131470 0.6592179565 0.6607951050 0.6633070068 0.6639946289 0.6642253418 0.6633984985 0.6658067017 0.6652204590 0.6662041626 0.6651947632 0.6656257935 0.6659719849 0.6666850586 0.6662603149 0.6652583008 0.6635208740 0.6633699341 0.6639330444 0.6640153809 0.6655971069 0.6662658081 0.6682937012 0.6682243652 0.6687685547 0.6686313477 0.6683829346 0.6682459717 0.6689724121 0.6697571411 0.6700900879 0.6712806396 0.6727145386 0.6737312012 0.6731973877 0.6728067627 0.6724705811 0.6721214600 0.6736365356 0.6738297729 0.6750485840 0.6751903076 0.6758574829 0.6754725342 0.6756466675 0.6770151367 0.6786552734 0.6798519897 0.6795275269 0.6801166382 0.6785324707 0.6773593140 0.6761508789 0.6774843140 0.6782529297 0.6787293091 0.6773958130 0.6783590088 0.6788048096 0.6802752686 0.6792280884 0.6796779785 0.6801194458 0.6818057251 0.6811480713 0.6818605347 0.6819891357 0.6835778809 0.6828085327 0.6834949341 0.6812076416 0.6799911499 0.6805187378 0.6826546631 0.6841102295 0.6841746216 0.6842822876 0.6845425415 0.6835248413 0.6838732910 0.6847069092 0.6868457031 0.6886055908 0.6885874023 0.6891945801 0.6890799561 0.6901473389 0.6916790771 0.6919501343 0.6915245972 0.6908070679 0.6918956299 0.6917949219 0.6905386353 0.6890177002 0.6870417480 0.6865677490 0.6830460205 0.6824215698 0.6798720093 0.6771140747 0.6744197998 0.6745197144 0.6771973877 0.6782484131 0.6798360596 0.6801520996 0.6814753418 0.6815308228 0.6825187378 0.6827035522 0.6842835083 0.6844670410 0.6856942139 0.6864609375 0.6866381226 0.6860309448 0.6875280762 0.6885681763 0.6896907959 0.6898789063 0.6908392334 0.6913203125 0.6925773315 0.6933867798 0.6943300171 0.6951083984 0.6958665771 0.6944710083 0.6939546509 0.6929106445 0.6947396240 0.6972542725 0.7011861572 0.7062636108 0.7112614746 0.0000000000 0.0000000000 0.0000000000 0.0000000000 0.7084214478 0.7091892700 0.7104197998 0.7116598511 0.7127310791 0.7145942993 0.7141885376 0.7126624146
0.5895497437 0.5848826904 0.5792218628 0.5706507568 0.5707882080 0.5754598999 0.5815555420 0.5825052490 0.5845480347 0.5870868530 0.5901793213 0.5895216064 0.5878220215 0.5847464600 0.5854783936 0.5875844116 0.5899135742 0.5933753052 0.5936393433 0.5983024902 0.5948573608 0.5903867798 0.5907034912 0.5914973145 0.5920394897 0.5899217529 0.5915985718 0.5958007813 0.5994802856 0.6014122314 0.6000899048 0.5978292236 0.5984326782 0.5995628662 0.6012590942 0.6004154053 0.5989559937 0.5997974243 0.6047156982 0.6108128052 0.6110603027 0.6089822998 0.6078819580 0.6096126099 0.6105949097 0.6105389404 0.6072857666 0.6069161377 0.6059708252 0.6067241211 0.6067286377 0.6069824829 0.6102841797 0.6107066650 0.6133521729 0.6125305786 0.6133118286 0.6152584839 0.6180148315 0.6209703979 0.6221422119 0.6239067993 0.6247860107 0.6266864624 0.6289554443 0.6293154297 0.6292143555 0.6302326660 0.6312054443 0.6310390015 0.6315023193 0.6339605103 0.6354295654 0.6366624756 0.6384004517 0.6426306763 0.6438055420 0.6451878662 0.6447033691 0.6457836914 0.6453543701 0.6453934326 0.6448129272 0.6453210449 0.6450922241 0.6438969116 0.6426801758 0.6432083740 0.6462011108 0.6470093384 0.6467115479 0.6464492798 0.6467133789 0.6485034180 0.6490301514 0.6482105103 0.6461496582 0.6443025513 0.6452225952 0.6465622559 0.6470615845 0.6484752197 0.6477199707 0.6495776367 0.6504454956 0.6530549316 0.6542343750 0.6543320313 0.6544700928 0.6545610352 0.6543199463 0.6548388062 0.6550855103 0.6562904663 0.6555429688 0.6561446533 0.6552061768 0.6554559937 0.6546838379 0.6573634033 0.6578129883 0.6591811523 0.6593187866 0.6608594971 0.6608430786 0.6619862061 0.6632015991 0.6648489380 0.6654986572 0.6665755615 0.6679602051 0.6680901489 0.6681942749 0.6683798218 0.6707240601 0.6721532593 0.6720828247 0.6735389404 0.6743178711 0.6757731323 0.6743167114 0.6734223022 0.6737519531 0.6744224854 0.6738091431 0.6707421875 0.6699934082 0.6696506958 0.6707683716 0.6694176025 0.6684495239 0.6672781372 0.6660369873 0.6643248291 0.6604313354 0.6611421509 0.6641439819 0.6667156982 0.6672567139 0.6675103760 0.6687841797 0.6704368286 0.6677922974 0.6638928223 0.6579157104 0.6569499512 0.6563077393 0.6560986938 0.6553405762 0.6569509888 0.6590372925 0.6606768799 0.6610353394 0.6615231323 0.6601254883 0.6599855347 0.6593678589 0.6580118408 0.6558929443 0.6547707520 0.6529736938 0.6526681519 0.6509935303 0.6510537720 0.6504926147 0.6518565674 0.6529818115 0.6549404297 0.6563121948 0.6572763062 0.6582515259 0.6588484497 0.6592539673 0.6600855103 0.6621485596 0.6641967773 0.6649891357 0.6669164429 0.6684058838 0.6696844482 0.6727943115 0.6753685303 0.6773798218 0.6783974609 0.6795605469 0.6807808838 0.6815153809 0.6830316162 0.6836444702 0.6821691895 0.6822824097 0.6824441528 0.6855376587 0.6874437256 0.6932758789 0.7000364990 0.7046149292 0.7078776855 0.7110493164 0.7089851685 0.7087858276 0.7074948120 0.7083407593 0.7096004028 0.7114208984 0.7120862427 0.7137551880 0.7134732666 0.7127531128
0.5746717529 0.5713367310 0.5635052490 0.5574270630 0.5537353516 0.5599320068 0.5630242920 0.5682177124 0.5717645874 0.5740982056 0.5761001587 0.5745576172 0.5761372070 0.5763963013 0.5791284790 0.5790042725 0.5794105835 0.5814889526 0.5818811035 0.5813359375 0.5801635742 0.5797284546 0.5832240601 0.5820564575 0.5833033447 0.5815371094 0.5838015747 0.5872819214 0.5895589600 0.5913397827 0.5887003784 0.5881926270 0.5894282837 0.5912861938 0.5913286133 0.5897490845 0.5879960938 0.5879762573 0.5916791992 0.5968883667 0.5968923950 0.5944208374 0.5945278931 0.5968058472 0.5983975830 0.5975057983 0.5962171631 0.5961776123 0.5954780884 0.5944570923 0.5942590942 0.5950977783 0.5978646851 0.5986860352 0.6008460083 0.6011736450 0.6029391479 0.6036583252 0.6047440186 0.6054362793 0.6064118042 0.6071128540 0.6063599854 0.6076284180 0.6101857910 0.6123508301 0.6132079468 0.6130783691 0.6122259521 0.6109360352 0.6119541626 0.6142471924 0.6159585571 0.6165950928 0.6185684814 0.6209409180 0.6228192139 0.6238447266 0.6249684448 0.6261505737 0.6258793945 0.6247620239 0.6236942139 0.6230361328 0.6217699585 0.6201002808 0.6195069580 0.6196688843 0.6223959351 0.6241808472 0.6251154175 0.6239239502 0.6246416016 0.6262775879 0.6275609741 0.6253094482 0.6234456787 0.6218196411 0.6244256592 0.6254532471 0.6261013794 0.6251263428 0.6245202637 0.6259171143 0.6284179688 0.6320443726 0.6335250854 0.6335282593 0.6347626343 0.6328833618 0.6330370483 0.6333676758 0.6349824829 0.6356483765 0.6340848389 0.6340446777 0.6340003662 0.6349776001 0.6346300659 0.6369149780 0.6378124390 0.6396369019 0.6409845581 0.6422485962 0.6425000000 0.6430932007 0.6447073975 0.6458352661 0.6471774292 0.6481065674 0.6501708984 0.6483582764 0.6482031860 0.6476894531 0.6491320190 0.6487811279 0.6480977173 0.6496011353 0.6508541870 0.6523718262 0.6514257202 0.6511584473 0.6512490845 0.6525794678 0.6531925049 0.6521779785 0.6515769043 0.6512026978 0.6514822998 0.6499705200 0.6487975464 0.6473118286 0.6460815430 0.6427304688 0.6391581421 0.6371771240 0.6390126953 0.6399789429 0.6410810547 0.6398988037 0.6418262939 0.6425180054 0.6403306885 0.6360495605 0.6318660278 0.6307402954 0.6284547119 0.6257443237 0.6249042358 0.6261817627 0.6287415161 0.6287968140 0.6281723022 0.6281719971 0.6274858398 0.6297194824 0.6309190063 0.6339817505 0.6335565796 0.6339088745 0.6328840332 0.6373463745 0.6381885986 0.6403404541 0.6403022461 0.6409645996 0.6413342285 0.6434000854 0.6457966309 0.6467498169 0.6472771606 0.6479377441 0.6493397217 0.6497714844 0.6510915527 0.6523102417 0.6536356812 0.6574016113 0.6594042358 0.6602098999 0.6620333252 0.6637022705 0.6664184570 0.6682172852 0.6697553101 0.6719262695 0.6728876953 0.6749647827 0.6754224243 0.6737601929 0.6743176270 0.6742525024 0.6783927612 0.6794438477 0.6845999146 0.6884791260 0.6961113281 0.7011262207 0.7057835083 0.7067469482 0.7076759644 0.7082795410 0.7086781006 0.7097470703 0.7086484985 0.7064047852 0.7040983276 0.7027086792 0.7041354370
0.5616444702 0.5575756226 0.5578222046 0.5541241455 0.5503720703 0.5546242065 0.5579863281 0.5627163086 0.5634061890 0.5669694214 0.5690163574 0.5703775635 0.5704762573 0.5721221924 0.5748626709 0.5739172974 0.5742452393 0.5757234497 0.5760046387 0.5734923706 0.5720341797 0.5740015259 0.5776466675 0.5764470215 0.5786804199 0.5786548462 0.5813867188 0.5832385254 0.5841159668 0.5859149780 0.5850407104 0.5853978271 0.5867117310 0.5879495850 0.5867700806 0.5863627319 0.5857196655 0.5872559204 0.5871643677 0.5902195435 0.5904623413 0.5903080444 0.5897324829 0.5930977173 0.5949252930 0.5952839966 0.5943867798 0.5940221558 0.5938189087 0.5919351807 0.5923284912 0.5932509766 0.5964989624 0.5978937988 0.5981335449 0.5987720947 0.6003892822 0.6018377686 0.6012031250 0.6011607666 0.6021478271 0.6024464722 0.6001911621 0.5996571655 0.6006155396 0.6035576782 0.6051835937 0.6054780884 0.6034598999 0.6035255737 0.6047333374 0.6072404785 0.6069675293 0.6072199097 0.6072062988 0.6091080933 0.6101195679 0.6126650391 0.6135020142 0.6144611206 0.6133742676 0.6122561646 0.6111373291 0.6111088867 0.6106773682 0.6106259766 0.6102391968 0.6104902954 0.6106780396 0.6117928467 0.6127105103 0.6133882446 0.6137577515 0.6145512085 0.6152841187 0.6137916870 0.6129296875 0.6118275146 0.6137233276 0.6145058594 0.6145283813 0.6139788208 0.6126173096 0.6143754883 0.6154837036 0.6175040894 0.6166972656 0.6171892090 0.6186773071 0.6180603638 0.6167687988 0.6171555176 0.6183073120 0.6185867920 0.6168056641 0.6172831421 0.6177013550 0.6179927979 0.6183040161 0.6190874634 0.6199912109 0.6217474976 0.6216791382 0.6223234863 0.6209548340 0.6222549438 0.6224906616 0.6235213623 0.6232124634 0.6246851196 0.6253229980 0.6254451294 0.6261665039 0.6267210693 0.6277943726 0.6277319946 0.6275991211 0.6301738892 0.6308589478 0.6327461548 0.6311452026 0.6308209839 0.6297869873 0.6311672363 0.6321414795 0.6323914185 0.6315468140 0.6317122803 0.6314835205 0.6313038330 0.6305349121 0.6302928467 0.6284617920 0.6271907349 0.6245601196 0.6234970093 0.6234262695 0.6236406250 0.6228494873 0.6211127930 0.6216859131 0.6209988403 0.6204191284 0.6193902588 0.6187586060 0.6191041870 0.6175825806 0.6152904663 0.6134989014 0.6142844238 0.6169642944 0.6178836670 0.6164894409 0.6161383057 0.6158159180 0.6192663574 0.6206203613 0.6245515137 0.6241395264 0.6254409180 0.6265957642 0.6319569702 0.6330072632 0.6358539429 0.6359424438 0.6373362427 0.6366856689 0.6398190918 0.6424982300 0.6443461304 0.6437816772 0.6448629150 0.6459475708 0.6478967285 0.6484502563 0.6497556152 0.6502863770 0.6540697632 0.6555546265 0.6565065308 0.6578899536 0.6602039185 0.6618220215 0.6634853516 0.6635721436 0.6661430054 0.6665466309 0.6687072144 0.6685084229 0.6667530518 0.6663937988 0.6672067261 0.6713252563 0.6732838745 0.6778474731 0.6796720581 0.6820205688 0.6818503418 0.6848776245 0.6866595459 0.6895368652 0.6899780273 0.6900293579 0.6894595947 0.6897673950 0.6890600586 0.6870978394 0.6853037720 0.6861764526
0.5497963257 0.5464354858 0.5502548828 0.5487720337 0.5486963501 0.5495103760 0.5506937866 0.5531934204 0.5544418335 0.5585494385 0.5606211548 0.5594313965 0.5604201660 0.5602346802 0.5636954346 0.5641324463 0.5672705078 0.5699270630 0.5690459595 0.5655835571 0.5644346313 0.5681284180 0.5742517700 0.5740135498 0.5747408447 0.5749277344 0.5768540039 0.5777308960 0.5764802246 0.5795426025 0.5800756836 0.5823316650 0.5818493652 0.5831744995 0.5805001221 0.5801640625 0.5786190796 0.5799265137 0.5770493164 0.5784082642 0.5807280884 0.5817424927 0.5825952759 0.5848790894 0.5890935059 0.5895090332 0.5888662720 0.5871583252 0.5880297852 0.5860152588 0.5883278198 0.5887305908 0.5913592529 0.5915987549 0.5926278076 0.5937615967 0.5952035522 0.5954371338 0.5949083862 0.5944082642 0.5965914307 0.5972713013 0.5961546631 0.5958298950 0.5966050415 0.5986826172 0.6002591553 0.6017008057 0.6014600220 0.6021101074 0.6034396973 0.6063523560 0.6053359985 0.6052324219 0.6042870483 0.6062683716 0.6074271240 0.6089478149 0.6104215088 0.6113520508 0.6115414429 0.6104887695 0.6098383789 0.6104826660 0.6103431396 0.6103494263 0.6099937134 0.6094393921 0.6087302246 0.6078043823 0.6099569702 0.6110100098 0.6123689575 0.6112304687 0.6127758179 0.6116137695 0.6119473267 0.6105666504 0.6114655762 0.6116102905 0.6119215698 0.6117864380 0.6113863525 0.6124432373 0.6142372437 0.6142778320 0.6132221680 0.6124106445 0.6145675049 0.6144133301 0.6138229370 0.6141828613 0.6154938354 0.6155443726 0.6143023071 0.6135778198 0.6146409912 0.6131733398 0.6135953979 0.6129268188 0.6146194458 0.6158260498 0.6168063965 0.6165549316 0.6155555420 0.6156093750 0.6155187988 0.6152576294 0.6161654663 0.6161010742 0.6163197021 0.6139811401 0.6148500977 0.6145238037 0.6161152344 0.6155392456 0.6165524902 0.6168842163 0.6177648926 0.6182078857 0.6186994629 0.6170416260 0.6161082764 0.6159375000 0.6178901978 0.6180724487 0.6185969849 0.6184012451 0.6169533081 0.6154667969 0.6141067505 0.6137699585 0.6138928833 0.6145505371 0.6140983887 0.6116026611 0.6089914551 0.6076254883 0.6069897461 0.6074885254 0.6088524170 0.6091741333 0.6086930542 0.6077291870 0.6094808960 0.6109786377 0.6111827393 0.6096507568 0.6091875000 0.6104107056 0.6122518921 0.6122208862 0.6119221191 0.6120838623 0.6130825195 0.6147296753 0.6152099609 0.6181735840 0.6181435547 0.6190656738 0.6209694214 0.6247698364 0.6275776367 0.6304985962 0.6324893188 0.6334219360 0.6319856567 0.6342580566 0.6361870117 0.6372638550 0.6369081421 0.6375062256 0.6390107422 0.6396716309 0.6398635864 0.6401301880 0.6413939209 0.6450241699 0.6478878784 0.6482933960 0.6480559692 0.6484244995 0.6496885986 0.6509617920 0.6509060669 0.6527523804 0.6526860962 0.6531927490 0.6516020508 0.6497485352 0.6492099609 0.6505053101 0.6528880005 0.6554406128 0.6585206299 0.6609522705 0.6613467407 0.6598497925 0.6618507690 0.6640447388 0.6671875000 0.6673126221 0.6674517212 0.6665980835 0.6679414673 0.6691505737 0.6688241577 0.6665587769 0.6664929199
0.5419004517 0.5410814819 0.5450899658 0.5444465332 0.5458364258 0.5438945312 0.5481674194 0.5472028198 0.5468280640 0.5492781372 0.5523644409 0.5536129761 0.5534327393 0.5524117432 0.5561218262 0.5581671753 0.5599329834 0.5618419800 0.5613819580 0.5623220215 0.5601802979 0.5638782959 0.5669723511 0.5678825073 0.5661370239 0.5671821289 0.5679069214 0.5678569946 0.5670310669 0.5696532593 0.5705924072 0.5695385132 0.5679517822 0.5688845215 0.5682625732 0.5696136475 0.5705265503 0.5708034668 0.5691491699 0.5682305298 0.5693895874 0.5710388794 0.5719430542 0.5764760132 0.5795718994 0.5808921509 0.5793712158 0.5775787964 0.5779027100 0.5768901978 0.5797972412 0.5814069214 0.5829954224 0.5828973389 0.5823504639 0.5824909668 0.5823248291 0.5837423706 0.5836207275 0.5839198608 0.5852000732 0.5854816284 0.5866010132 0.5881211548 0.5915048218 0.5948577881 0.5966601563 0.5982747192 0.5990831299 0.6004596558 0.6014882202 0.6034356689 0.6020253906 0.6022424927 0.6005664063 0.6023231812 0.6031878052 0.6041984863 0.6049480591 0.6060255737 0.6074964600 0.6082658691 0.6077497559 0.6089969482 0.6099799805 0.6114182739 0.6107069702 0.6102086182 0.6093198242 0.6084132080 0.6103433228 0.6134127197 0.6146372070 0.6127572632 0.6123165894 0.6120706787 0.6125825195 0.6113076172 0.6110578613 0.6122749634 0.6128349609 0.6147825317 0.6150108643 0.6164549561 0.6172018433 0.6161124878 0.6146823120 0.6137081299 0.6142412720 0.6151163330 0.6155092773 0.6166546021 0.6171838989 0.6167974854 0.6159737549 0.6155907593 0.6165774536 0.6160073242 0.6172529297 0.6169774780 0.6175488281 0.6171651611 0.6163760986 0.6146205444 0.6113653564 0.6090950317 0.6071063232 0.6062043457 0.6063294678 0.6065742188 0.6055436401 0.6029636230 0.6014262085 0.5997872314 0.6002620850 0.6009332275 0.6019548340 0.6031373901 0.6045623779 0.6068524170 0.6075032349 0.6060609131 0.6059368286 0.6057792969 0.6066035767 0.6067178345 0.6083892212 0.6088078613 0.6077704468 0.6051208496 0.6037835693 0.6037102661 0.6053041382 0.6072689819 0.6071406860 0.6054429321 0.6017910156 0.6010935669 0.6002532349 0.6019032593 0.6029902344 0.6044013062 0.6048966675 0.6033099365 0.6052199707 0.6075769653 0.6106973877 0.6113940430 0.6106702881 0.6113724976 0.6118672485 0.6131217651 0.6132918091 0.6127244873 0.6130878296 0.6130299072 0.6132776489 0.6149884644 0.6149739380 0.6157531128 0.6176812134 0.6204982300 0.6225140991 0.6248384399 0.6265873413 0.6280248413 0.6269140015 0.6288557129 0.6285573730 0.6291309814 0.6283418579 0.6297155151 0.6294187012 0.6302323608 0.6296240845 0.6301909790 0.6314150391 0.6335159302 0.6349334106 0.6350947876 0.6352998657 0.6361434326 0.6359266968 0.6362593384 0.6351233521 0.6363413696 0.6357131348 0.6366130371 0.6350989990 0.6352020264 0.6343248901 0.6367971802 0.6377832642 0.6399010620 0.6414758911 0.6441136475 0.6467622070 0.6478646240 0.6508439941 0.6529143066 0.6557426147 0.6547512207 0.6533272705 0.6520014648 0.6535078125 0.6565876465 0.6582067871 0.6585576172 0.6588762207
0.5335883179 0.5326044922 0.5330371704 0.5333592529 0.5347295532 0.5324190063 0.5339598389 0.5312429810 0.5319402466 0.5344721680 0.5393237915 0.5403629761 0.5400340576 0.5389326782 0.5424998169 0.5429682617 0.5426519165 0.5456254272 0.5447745361 0.5485947876 0.5468759155 0.5504912109 0.5497791748 0.5527054443 0.5519400024 0.5522872925 0.5519271851 0.5522955322 0.5549370728 0.5593632813 0.5621874390 0.5610044556 0.5593563843 0.5589578247 0.5590709229 0.5580010986 0.5582309570 0.5593796387 0.5600948486 0.5608177490 0.5606033936 0.5589125977 0.5586107788 0.5608426514 0.5623904419 0.5608539429 0.5601399536 0.5603269653 0.5624705811 0.5622577515 0.5660585327 0.5662918701 0.5686782227 0.5685142212 0.5699663696 0.5699675293 0.5698962402 0.5709395142 0.5720344238 0.5723626709 0.5737565918 0.5744946899 0.5766943359 0.5786925659 0.5815859985 0.5838401489 0.5850841064 0.5863299561 0.5869506836 0.5868894043 0.5864908447 0.5891119995 0.5902967529 0.5920575562 0.5915013428 0.5926809082 0.5944790039 0.5960281372 0.5967587280 0.5972171631 0.5978680420 0.5993171387 0.5990516968 0.6005530396 0.6014113159 0.6023251953 0.6011658936 0.6008631592 0.6012559814 0.6000783691 0.6009638062 0.6028599854 0.6034244995 0.6005733643 0.5995753174 0.5995452271 0.6004378662 0.5991003418 0.5990018311 0.6001308594 0.6015607300 0.6025832520 0.6045496216 0.6056593018 0.6080251465 0.6072927246 0.6083933105 0.6072199707 0.6070399780 0.6057362671 0.6061848755 0.6060653076 0.6060268555 0.6036322632 0.6019071655 0.6012610474 0.6035173340 0.6040344238 0.6043771362 0.6040891724 0.6048437500 0.6023694458 0.5996834106 0.5973666992 0.5958546143 0.5923475342 0.5891177979 0.5871386108 0.5869494629 0.5852722778 0.5838856201 0.5814988403 0.5815357056 0.5804466553 0.5807723389 0.5816787109 0.5838801880 0.5855142822 0.5877349854 0.5886618652 0.5882812500 0.5866177368 0.5874302979 0.5882913818 0.5887849731 0.5884482422 0.5905654907 0.5904143066 0.5912986450 0.5888236694 0.5897828979 0.5902152710 0.5939035034 0.5961846313 0.5980880737 0.5967490234 0.5954091187 0.5952857666 0.5958578491 0.5982355347 0.6003295898 0.6021503296 0.6014591064 0.5990650024 0.6005756836 0.6028943481 0.6055702515 0.6074987183 0.6083403931 0.6097398071 0.6079180298 0.6075980835 0.6075363159 0.6063427124 0.6065576782 0.6054024048 0.6062376709 0.6069243774 0.6067969360 0.6069285889 0.6082331543 0.6105839844 0.6116848145 0.6132629395 0.6143527832 0.6161511841 0.6149917603 0.6161243286 0.6151567383 0.6151028442 0.6143784790 0.6146001587 0.6144087524 0.6139312134 0.6145002441 0.6152698364 0.6178749390 0.6188726807 0.6208958130 0.6206545410 0.6215967407 0.6214476318 0.6212169800 0.6208729248 0.6206826172 0.6210881348 0.6212463989 0.6217174683 0.6220329590 0.6231925659 0.6231181030 0.6240216675 0.6240690308 0.6265626221 0.6278311768 0.6305085449 0.6335584106 0.6364845581 0.6411129150 0.6422990723 0.6439097290 0.6423416748 0.6426795654 0.6435031128 0.6453540649 0.6483248291 0.6507370605 0.6522465820 0.6526627197
0.5277757568 0.5278264771 0.5247834473 0.5236676636 0.5225263062 0.5177608032 0.5209584351 0.5208248291 0.5199736938 0.5218471069 0.5272015991 0.5336030884 0.5343532104 0.5325944214 0.5327522583 0.5326151733 0.5332100830 0.5361566772 0.5368713989 0.5415712280 0.5410010986 0.5434634399 0.5406657104 0.5431123657 0.5442541504 0.5460724487 0.5437379150 0.5428822632 0.5450675049 0.5486746826 0.5524090576 0.5513159180 0.5503805542 0.5501178589 0.5507918091 0.5486514893 0.5475858765 0.5468257446 0.5491589355 0.5490186768 0.5470275879 0.5448025513 0.5448024292 0.5478776855 0.5479765625 0.5479118652 0.5488218384 0.5500493774 0.5521712036 0.5524826050 0.5550733032 0.5556668701 0.5573433838 0.5588175659 0.5596281128 0.5599974365 0.5595367432 0.5620886841 0.5630391235 0.5640191040 0.5654911499 0.5668165283 0.5698868408 0.5711055908 0.5741230469 0.5757293701 0.5771465454 0.5772116699 0.5781506958 0.5783627930 0.5778480225 0.5789354858 0.5805578613 0.5823936768 0.5812398682 0.5811502075 0.5826690063 0.5845433960 0.5850193481 0.5844381714 0.5852265015 0.5861571045 0.5868089600 0.5868425293 0.5885308228 0.5891611328 0.5895713501 0.5901102295 0.5913018799 0.5905864258 0.5905994873 0.5921571045 0.5924911499 0.5911112671 0.5891882935 0.5888882446 0.5884548340 0.5871444702 0.5865725708 0.5873588867 0.5887030640 0.5887525635 0.5895213623 0.5898581543 0.5895808105 0.5868753052 0.5865934448 0.5862084351 0.5858300781 0.5842141113 0.5834002686 0.5830975952 0.5806546021 0.5785720215 0.5768213501 0.5788446655 0.5808823853 0.5809849854 0.5801793213 0.5819669800 0.5797432861 0.5743982544 0.5714049683 0.5720480347 0.5728697510 0.5725970459 0.5718768311 0.5721701050 0.5719303589 0.5714133301 0.5706401978 0.5702241821 0.5709459229 0.5700919189 0.5706139526 0.5713485107 0.5738520508 0.5764100342 0.5793505859 0.5815078735 0.5818724365 0.5821956177 0.5825898438 0.5834689331 0.5839509277 0.5843531494 0.5866255493 0.5869666138 0.5886593018 0.5872119141 0.5886376343 0.5894945068 0.5927781372 0.5954497070 0.5980758667 0.5992246094 0.6001767578 0.6002236938 0.5996895752 0.6004719849 0.6014407959 0.6016227417 0.6000217285 0.5991143799 0.6005714722 0.6016679688 0.6024080811 0.6022324829 0.6024093628 0.6024276733 0.6003085327 0.5989654541 0.5977030640 0.5975098267 0.5972377930 0.5974909058 0.5986188965 0.5991637573 0.5979047852 0.5978963013 0.5985773315 0.6004721069 0.6005405884 0.6014514160 0.6023566284 0.6042142334 0.6044110718 0.6047601318 0.6050473022 0.6050079346 0.6048676758 0.6042362671 0.6024912109 0.6027001343 0.6035995483 0.6060711670 0.6074777222 0.6084235229 0.6100667725 0.6108457642 0.6121692505 0.6126729126 0.6127211304 0.6131560669 0.6126765747 0.6132869873 0.6132436523 0.6144226074 0.6157937622 0.6165451660 0.6164949951 0.6157486572 0.6159716187 0.6183051758 0.6203785400 0.6237031860 0.6272044067 0.6322492065 0.6382435913 0.6404522705 0.6407731323 0.6398109741 0.6401406860 0.6411512451 0.6418057861 0.6431856689 0.6449251099 0.6462257080 0.6467669067
0.5090125427 0.5154616089 0.5151432495 0.5180165405 0.5148597412 0.5097857971 0.5115484314 0.5117570496 0.5147567139 0.5148404541 0.5189527588 0.5222819214 0.5247586670 0.5213009644 0.5215834351 0.5228828735 0.5270496826 0.5292405396 0.5286315308 0.5305281372 0.5294598389 0.5324046631 0.5308437500 0.5342527466 0.5353818970 0.5371110229 0.5329331665 0.5298320923 0.5301968994 0.5329216309 0.5358347168 0.5354310913 0.5366269531 0.5344673462 0.5355168457 0.5330905762 0.5312490234 0.5313323364 0.5343812256 0.5363355713 0.5362680054 0.5348634644 0.5358314209 0.5369932861 0.5383455811 0.5384197998 0.5410538940 0.5433903198 0.5451087036 0.5448388062 0.5456949463 0.5453073730 0.5463955688 0.5485535889 0.5514644165 0.5532869873 0.5533197021 0.5538093872 0.5539974365 0.5543391724 0.5559712524 0.5571128540 0.5604006958 0.5612012939 0.5619252930 0.5600525513 0.5609328003 0.5597246704 0.5605354004 0.5610881348 0.5616539917 0.5630114136 0.5646376953 0.5666479492 0.5663104248 0.5670188599 0.5685061035 0.5704170532 0.5702684937 0.5680343628 0.5670098267 0.5655247192 0.5667949829 0.5673237305 0.5711343384 0.5716278687 0.5730272217 0.5738747559 0.5757322388 0.5756437988 0.5752595215 0.5749556885 0.5735841064 0.5725604248 0.5717550049 0.5713779297 0.5700064087 0.5685006714 0.5679649658 0.5677740479 0.5688962402 0.5678536377 0.5687757568 0.5686909180 0.5687686157 0.5656059570 0.5650709839 0.5645599365 0.5641986084 0.5622134399 0.5604552002 0.5585881958 0.5570100708 0.5562489624 0.5572469482 0.5576896973 0.5577062988 0.5565850830 0.5575460815 0.5577670288 0.5567422485 0.5544425659 0.5553993530 0.5569226074 0.5608151245 0.5620352783 0.5630819702 0.5631624756 0.5641837158 0.5648159790 0.5647276611 0.5652362061 0.5663728638 0.5665728760 0.5672359009 0.5682575684 0.5713952637 0.5745823364 0.5786655884 0.5803343506 0.5813155518 0.5808849487 0.5808621216 0.5813946533 0.5819343262 0.5826671753 0.5833103638 0.5826877441 0.5833143311 0.5820201416 0.5826120605 0.5832607422 0.5855170898 0.5883174438 0.5903070068 0.5920389404 0.5926585083 0.5918085938 0.5903468018 0.5909262695 0.5912978516 0.5907873535 0.5881820068 0.5882949219 0.5889157104 0.5897199097 0.5887730713 0.5865651855 0.5846015625 0.5847519531 0.5848084106 0.5856063843 0.5847457275 0.5845657349 0.5836891479 0.5840054321 0.5852954102 0.5872245483 0.5875737915 0.5885980835 0.5882799072 0.5885651245 0.5881367188 0.5888265991 0.5892356567 0.5911983032 0.5924761353 0.5925233154 0.5929049072 0.5923834229 0.5931525269 0.5906389160 0.5889646606 0.5892312622 0.5912578125 0.5940223999 0.5947348633 0.5959203491 0.5981283569 0.5999052734 0.6010309448 0.6008436279 0.6008966064 0.6017582397 0.6015908203 0.6019913330 0.6025759277 0.6036361694 0.6045640869 0.6058158569 0.6063930054 0.6060014648 0.6052661133 0.6067744141 0.6093864746 0.6134125366 0.6162824707 0.6199795532 0.6238281250 0.6256706543 0.6263958740 0.6268430176 0.6280628662 0.6282869263 0.6289615479 0.6283493042 0.6287066650 0.6286097412 0.6303078613
0.5013486023 0.5036383972 0.5038246765 0.5041940002 0.5063232117 0.5028196716 0.5055252686 0.5053086548 0.5091841431 0.5070032043 0.5098410645 0.5125188599 0.5199734497 0.5182948608 0.5173904419 0.5160488281 0.5180734253 0.5187072144 0.5190623779 0.5217271118 0.5223098755 0.5240236206 0.5232330322 0.5237575073 0.5237026367 0.5246258545 0.5224632568 0.5190174561 0.5195936890 0.5204171143 0.5235692139 0.5226125488 0.5228098145 0.5208005371 0.5225561523 0.5241249390 0.5249503784 0.5236442871 0.5235916748 0.5258834839 0.5281751099 0.5281694336 0.5285907593 0.5292537231 0.5313849487 0.5328229370 0.5354636841 0.5379003906 0.5396094360 0.5402979126 0.5418815918 0.5405457153 0.5391241455 0.5382642212 0.5407714233 0.5430233765 0.5424210205 0.5404181519 0.5387011719 0.5393393555 0.5398921509 0.5399363403 0.5426308594 0.5445699463 0.5455265503 0.5445905151 0.5457156982 0.5445270996 0.5444572144 0.5435323486 0.5433199463 0.5431020508 0.5423126831 0.5433312988 0.5434962158 0.5435778198 0.5430635986 0.5401946411 0.5385387573 0.5361233521 0.5386484375 0.5395327759 0.5414415283 0.5420209351 0.5459486694 0.5475772095 0.5497603149 0.5506771851 0.5525666504 0.5520353394 0.5509868774 0.5489420776 0.5483018799 0.5484363403 0.5486790771 0.5477473755 0.5459116821 0.5460465698 0.5475089111 0.5470771484 0.5468068848 0.5461441040 0.5469700928 0.5479841919 0.5477160645 0.5453625488 0.5439288330 0.5437381592 0.5451470947 0.5454246826 0.5453688965 0.5456668091 0.5457606812 0.5470167847 0.5492941895 0.5503743896 0.5508576050 0.5500076294 0.5520237427 0.5533268433 0.5530095825 0.5523557739 0.5530565186 0.5550607300 0.5580344238 0.5604212036 0.5622702026 0.5636243896 0.5644511719 0.5660033569 0.5655183716 0.5662270508 0.5666375732 0.5681461182 0.5692594604 0.5695759277 0.5709988403 0.5731691895 0.5770299072 0.5791456299 0.5806904907 0.5806535645 0.5796533813 0.5788528442 0.5785531006 0.5800079956 0.5805362549 0.5798677979 0.5787140503 0.5780965576 0.5784285278 0.5785717163 0.5790304565 0.5812053223 0.5823554687 0.5833577881 0.5813717041 0.5806284180 0.5782846069 0.5793782349 0.5786398926 0.5787684326 0.5767916260 0.5769432373 0.5775788574 0.5785643921 0.5777105103 0.5756596069 0.5740148315 0.5742988892 0.5749765015 0.5756924438 0.5758845215 0.5765316162 0.5757903442 0.5753710938 0.5752366943 0.5760264282 0.5768912354 0.5777672729 0.5772341309 0.5767659912 0.5770326538 0.5776698608 0.5779386597 0.5798289795 0.5821810303 0.5828572388 0.5828785400 0.5820319824 0.5825250244 0.5807604370 0.5798998413 0.5804522095 0.5815450439 0.5835812378 0.5838528442 0.5853103027 0.5865212402 0.5894238892 0.5893049316 0.5902540283 0.5899772339 0.5927921143 0.5920633545 0.5930015259 0.5929212036 0.5946624146 0.5935339355 0.5936235352 0.5932771606 0.5942364502 0.5942829590 0.5957976074 0.5984034424 0.6027168579 0.6052491455 0.6086280518 0.6109484253 0.6126063232 0.6133592529 0.6141342773 0.6148939819 0.6148554077 0.6153563232 0.6140202026 0.6133840942 0.6140768433 0.6166416626
0.0000000000 0.0000000000 0.0000000000 0.0000000000 0.0000000000 0.0000000000 0.0000000000 0.0000000000 0.0000000000 0.0000000000 0.5010690308 0.5033986511 0.5076464844 0.5073739319 0.5036269531 0.0000000000 0.5010167847 0.5041511230 0.5076305847 0.5088063965 0.5078594055 0.5070383301 0.5056937256 0.5070408630 0.5065045471 0.5068090515 0.5054554443 0.5039334717 0.5043829346 0.5049699097 0.5072573547 0.5059778137 0.5067114563 0.5062601318 0.5086322937 0.5110755615 0.5133133545 0.5138602295 0.5113453064 0.5134386597 0.5171193848 0.5170092163 0.5145143433 0.5135820313 0.5174772339 0.5183322144 0.5200404663 0.5218457642 0.5238314819 0.5232590942 0.5237196045 0.5207098389 0.5164281006 0.5120155640 0.5131602173 0.5152243652 0.5148714600 0.5103997192 0.5083249207 0.5070494690 0.5062011108 0.5051257935 0.5089598389 0.5119832458 0.5136655273 0.5118717041 0.5103723145 0.5101798706 0.5103900757 0.5107577820 0.5105072937 0.5099881897 0.5107466736 0.5119395447 0.5124003906 0.5115659790 0.5113731995 0.5117336426 0.5128891602 0.5132321167 0.5164761353 0.5172894897 0.5186096191 0.5179663696 0.5203495483 0.5217708130 0.5236828613 0.5233937378 0.5249692383 0.5247704468 0.5242537842 0.5220322266 0.5225590210 0.5236350098 0.5241620483 0.5233875122 0.5235324707 0.5244639282 0.5262330933 0.5263753662 0.5274019165 0.5276260986 0.5288948364 0.5304350586 0.5313366699 0.5318109741 0.5330571899 0.5352088623 0.5379425659 0.5388975220 0.5403649292 0.5413312378 0.5430980225 0.5435993652 0.5455140991 0.5444495850 0.5450414429 0.5446505737 0.5477202148 0.5481690063 0.5494245605 0.5504995117 0.5521023560 0.5529850464 0.5548592529 0.5565565796 0.5584775391 0.5593891602 0.5605012817 0.5616643066 0.5616265869 0.5623682251 0.5626729736 0.5636641846 0.5636958618 0.5634291382 0.5632289429 0.5657283936 0.5683135376 0.5689340210 0.5678841553 0.5640833740 0.5614348145 0.5599325562 0.5593979492 0.5591821899 0.5585428467 0.5567695923 0.5548580933 0.5537691040 0.5554724731 0.5572738037 0.5580394897 0.5577493896 0.5592625122 0.5611446533 0.5612423706 0.5610222168 0.5606140747 0.5621283569 0.5613257446 0.5609372559 0.5606127319 0.5609789429 0.5620906372 0.5636897583 0.5646794434 0.5640888062 0.5626351318 0.5623291626 0.5619840088 0.5635540161 0.5636239624 0.5633856201 0.5619785767 0.5611885986 0.5611209717 0.5616730957 0.5630785522 0.5638435669 0.5636630249 0.5642750854 0.5646744995 0.5654782715 0.5651148682 0.5668044434 0.5674683838 0.5682949829 0.5673786011 0.5673186646 0.5659171753 0.5663333130 0.5670378418 0.5689105225 0.5682406616 0.5695634766 0.5707796021 0.5717241821 0.5730656738 0.5747449341 0.5750316162 0.5748046875 0.5753379517 0.5787080078 0.5793428345 0.5798539429 0.5797037964 0.5815007935 0.5804031982 0.5804096069 0.5798866577 0.5817873535 0.5820925293 0.5824083252 0.5851284180 0.5890942383 0.5912259521 0.5934266968 0.5947471924 0.5948792114 0.5962401123 0.5969288330 0.5990799561 0.5990216064 0.6000430298 0.6002507935 0.5999685059 0.6008154297 0.6029027100
0.0000000000 0.0000000000 0.0000000000 0.0000000000 0.0000000000 0.0000000000 0.0000000000 0.0000000000 0.0000000000 0.0000000000 0.0000000000 0.0000000000 0.0000000000 0.0000000000 0.0000000000 0.0000000000 0.0000000000 0.0000000000 0.0000000000 0.0000000000 0.0000000000 0.0000000000 0.0000000000 0.0000000000 0.0000000000 0.0000000000 0.0000000000 0.0000000000 0.0000000000 0.0000000000 0.0000000000 0.0000000000 0.0000000000 0.0000000000 0.0000000000 0.0000000000 0.0000000000 0.0000000000 0.0000000000 0.0000000000 0.0000000000 0.0000000000 0.0000000000 0.0000000000 0.0000000000 0.0000000000 0.0000000000 0.0000000000 0.0000000000 0.0000000000 0.0000000000 0.0000000000 0.0000000000 0.0000000000 0.0000000000 0.0000000000 0.0000000000 0.0000000000 0.0000000000 0.0000000000 0.0000000000 0.0000000000 0.0000000000 0.0000000000 0.0000000000 0.0000000000 0.0000000000 0.0000000000 0.0000000000 0.0000000000 0.0000000000 0.0000000000 0.0000000000 0.0000000000 0.0000000000 0.0000000000 0.0000000000 0.0000000000 0.0000000000 0.0000000000 0.5028400574 0.5041636963 0.5062247009 0.5062607117 0.5085887451 0.5086791077 0.5098549500 0.5103230591 0.5122950439 0.5137806396 0.5142454224 0.5137402344 0.5153264771 0.5171145020 0.5171178589 0.5168908081 0.5182185669 0.5204561157 0.5220906982 0.5233464355 0.5252088623 0.5261764526 0.5263307495 0.5269568481 0.5267650146 0.5282933960 0.5298681030 0.5328878784 0.5356528320 0.5366891479 0.5385062256 0.5405649414 0.5432747192 0.5445140991 0.5449025879 0.5448953247 0.5454832764 0.5444191895 0.5455667725 0.5456122437 0.5466513672 0.5475826416 0.5475090332 0.5479169922 0.5472371826 0.5470246582 0.5473646240 0.5477998657 0.5486140747 0.5491341553 0.5497131348 0.5493897095 0.5484053955 0.5480249634 0.5478146973 0.5473213501 0.5473433228 0.5490526733 0.5501580811 0.5481998291 0.5443492432 0.5414406128 0.5393531494 0.5393634033 0.5376909180 0.5365352783 0.5354877930 0.5363820801 0.5362695312 0.5367644653 0.5375863647 0.5396476440 0.5398809204 0.5388153076 0.5413696899 0.5430478516 0.5454153442 0.5455728760 0.5476234131 0.5491778564 0.5486973267 0.5481531982 0.5486467896 0.5493611450 0.5505180664 0.5519503174 0.5529561768 0.5534247437 0.5537474365 0.5519287109 0.5501937256 0.5499140015 0.5509375610 0.5514402466 0.5515670166 0.5508800049 0.5508280640 0.5497846680 0.5507656250 0.5507295532 0.5523007813 0.5527254639 0.5536719360 0.5540830078 0.5542453003 0.5553925781 0.5558320313 0.5571552734 0.5564075317 0.5557713623 0.5536721802 0.5542230835 0.5550324707 0.5561701660 0.5553411865 0.5570655518 0.5589535522 0.5603378906 0.5608909302 0.5621228638 0.5620499268 0.5630028687 0.5641083374 0.5676268921 0.5677135010 0.5683583984 0.5678698730 0.5696472778 0.5690567017 0.5681921997 0.5677256470 0.5688345947 0.5700025635 0.5707611694 0.5728261108 0.5761360474 0.5779092407 0.5804781494 0.5832924194 0.5833475342 0.5844311523 0.5846119995 0.5875609741 0.5875781860 0.5871812744 0.5871262817 0.5877681885 0.5883687744 0.5878970947
0.0000000000 0.0000000000 0.0000000000 0.0000000000 0.0000000000 0.0000000000 0.0000000000 0.0000000000 0.0000000000 0.0000000000 0.0000000000 0.0000000000 0.0000000000 0.0000000000 0.0000000000 0.0000000000 0.0000000000 0.0000000000 0.0000000000 0.0000000000 0.0000000000 0.0000000000 0.0000000000 0.0000000000 0.0000000000 0.0000000000 0.0000000000 0.0000000000 0.0000000000 0.0000000000 0.0000000000 0.0000000000 0.0000000000 0.0000000000 0.0000000000 0.0000000000 0.0000000000 0.0000000000 0.0000000000 0.0000000000 0.0000000000 0.0000000000 0.0000000000 0.0000000000 0.0000000000 0.0000000000 0.0000000000 0.0000000000 0.0000000000 0.0000000000 0.0000000000 0.0000000000 0.0000000000 0.0000000000 0.0000000000 0.0000000000 0.0000000000 0.0000000000 0.0000000000 0.0000000000 0.0000000000 0.0000000000 0.0000000000 0.0000000000 0.0000000000 0.0000000000 0.0000000000 0.0000000000 0.0000000000 0.0000000000 0.0000000000 0.0000000000 0.0000000000 0.0000000000 0.0000000000 0.0000000000 0.0000000000 0.0000000000 0.0000000000 0.0000000000 0.0000000000 0.0000000000 0.5029039307 0.5028935852 0.5050018616 0.5044253235 0.5055556946 0.5065040283 0.5083825378 0.5117986755 0.5126480103 0.5130441284 0.5144322510 0.5163145752 0.5160301514 0.5158267212 0.5166555786 0.5188941040 0.5191465454 0.5214275513 0.5238457031 0.5249514771 0.5236531372 0.5232835083 0.5233405151 0.5252985840 0.5280181885 0.5314353027 0.5331784668 0.5321323853 0.5316129761 0.5320202026 0.5321054687 0.5320175171 0.5317770996 0.5308713379 0.5303283691 0.5294542236 0.5300494385 0.5290800171 0.5290513916 0.5301870117 0.5311076050 0.5308073730 0.5294549561 0.5288240967 0.5286252441 0.5283281860 0.5282926025 0.5289118042 0.5303018799 0.5300184937 0.5299860229 0.5290540771 0.5288477783 0.5282243652 0.5286731567 0.5312352295 0.5321017456 0.5300563965 0.5262014160 0.5254783936 0.5253569946 0.5250542603 0.5225294800 0.5219437256 0.5220586548 0.5242682495 0.5246465454 0.5262562256 0.5268258667 0.5280371094 0.5276162109 0.5272490845 0.5292600098 0.5308755493 0.5318759766 0.5312780151 0.5323112793 0.5336220093 0.5345327759 0.5356994629 0.5357314453 0.5353768921 0.5344233398 0.5356467285 0.5378398438 0.5372983398 0.5366931763 0.5342883911 0.5339284668 0.5351211548 0.5352584229 0.5352369995 0.5352176514 0.5358424683 0.5368706665 0.5367924805 0.5375069580 0.5384294434 0.5387677612 0.5390778809 0.5380648804 0.5385223999 0.5389957275 0.5399899902 0.5383225098 0.5391756592 0.5376977539 0.5385299683 0.5367450562 0.5389387817 0.5418122559 0.5433445435 0.5421956787 0.5417982178 0.5433526611 0.5441397705 0.5444733887 0.5446359863 0.5456489868 0.5473825684 0.5489108887 0.5518786011 0.5531484985 0.5534689331 0.5535015259 0.5542632446 0.5550551147 0.5540961304 0.5544479980 0.5553578491 0.5580981445 0.5585243530 0.5600609131 0.5613375244 0.5634506836 0.5654791260 0.5688657227 0.5685092163 0.5692088623 0.5685024414 0.5704142456 0.5710427856 0.5698378296 0.5702926025 0.5698356323 0.5698117676 0.5682733154
0.0000000000 0.0000000000 0.0000000000 0.0000000000 0.0000000000 0.0000000000 0.0000000000 0.0000000000 0.0000000000 0.0000000000 0.0000000000 0.0000000000 0.0000000000 0.0000000000 0.0000000000 0.0000000000 0.0000000000 0.0000000000 0.0000000000 0.0000000000 0.0000000000 0.0000000000 0.0000000000 0.0000000000 0.0000000000 0.0000000000 0.0000000000 0.0000000000 0.0000000000 0.0000000000 0.0000000000 0.0000000000 0.0000000000 0.0000000000 0.0000000000 0.0000000000 0.0000000000 0.0000000000 0.0000000000 0.0000000000 0.0000000000 0.0000000000 0.0000000000 0.0000000000 0.0000000000 0.0000000000 0.0000000000 0.0000000000 0.0000000000 0.0000000000 0.0000000000 0.0000000000 0.0000000000 0.0000000000 0.0000000000 0.0000000000 0.0000000000 0.0000000000 0.0000000000 0.0000000000 0.0000000000 0.0000000000 0.0000000000 0.0000000000 0.0000000000 0.0000000000 0.0000000000 0.0000000000 0.0000000000 0.0000000000 0.0000000000 0.0000000000 0.0000000000 0.0000000000 0.0000000000 0.0000000000 0.0000000000 0.0000000000 0.0000000000 0.0000000000 0.5016402893 0.5030064087 0.5075122681 0.5072347412 0.5077810059 0.5057352905 0.5051087952 0.5059569702 0.5068077087 0.5097888184 0.5097350159 0.5097269287 0.5099188538 0.5101315613 0.5093958130 0.5102702637 0.5118349609 0.5145215454 0.5141932373 0.5162102051 0.5167745361 0.5174777222 0.5169634399 0.5177678833 0.5184329834 0.5199984741 0.5214152222 0.5227160645 0.5222133789 0.5208141479 0.5195486450 0.5195355225 0.5197522583 0.5206334229 0.5213610840 0.5211369629 0.5213244019 0.5200583496 0.5182636108 0.5169346313 0.5168267212 0.5182821655 0.5191628418 0.5193297119 0.5188353882 0.5189031372 0.5180192261 0.5175953369 0.5162348633 0.5181770630 0.5184817505 0.5181648560 0.5176133423 0.5178469849 0.5184608154 0.5185134888 0.5190199585 0.5206432495 0.5211262817 0.5200156860 0.5177015991 0.5189259033 0.5201676025 0.5199052734 0.5174848633 0.5180249634 0.5200223999 0.5225355225 0.5226190186 0.5234772339 0.5225383301 0.5221040649 0.5219736938 0.5221059570 0.5234298096 0.5238276367 0.5252571411 0.5244458008 0.5240271606 0.5239002686 0.5258397217 0.5279651489 0.5282172852 0.5268431396 0.5257871704 0.5265201416 0.5286649170 0.5273174438 0.5269551392 0.5240223999 0.5240238037 0.5248091431 0.5260334473 0.5265042114 0.5267881470 0.5275908203 0.5288598633 0.5283613892 0.5274266968 0.5269904785 0.5261812134 0.5264079590 0.5254157104 0.5256846313 0.5263464966 0.5271729126 0.5259620361 0.5252657471 0.5261972046 0.5276403809 0.5284935303 0.5288129272 0.5308036499 0.5294093628 0.5292017212 0.5289993896 0.5302634888 0.5307088013 0.5307186890 0.5324775391 0.5334182129 0.5358330688 0.5366900635 0.5383600464 0.5390632324 0.5393013916 0.5399713135 0.5410468750 0.5423889771 0.5419786377 0.5418150635 0.5423369751 0.5443480835 0.5470303955 0.5496873169 0.5511252441 0.5522725220 0.5535299683 0.5566080933 0.5575020142 0.5556080933 0.5543296509 0.5550697632 0.5564778442 0.5552634888 0.5538945923 0.5542152100 0.5549377441 0.5536045532
0.0000000000 0.0000000000 0.0000000000 0.0000000000 0.0000000000 0.0000000000 0.0000000000 0.0000000000 0.0000000000 0.0000000000 0.0000000000 0.0000000000 0.0000000000 0.0000000000 0.0000000000 0.0000000000 0.0000000000 0.0000000000 0.0000000000 0.0000000000 0.0000000000 0.0000000000 0.0000000000 0.0000000000 0.0000000000 0.0000000000 0.0000000000 0.0000000000 0.0000000000 0.0000000000 0.0000000000 0.0000000000 0.0000000000 0.0000000000 0.0000000000 0.0000000000 0.0000000000 0.0000000000 0.0000000000 0.0000000000 0.0000000000 0.0000000000 0.0000000000 0.0000000000 0.0000000000 0.0000000000 0.0000000000 0.0000000000 0.0000000000 0.0000000000 0.0000000000 0.0000000000 0.0000000000 0.0000000000 0.0000000000 0.0000000000 0.0000000000 0.0000000000 0.0000000000 0.0000000000 0.0000000000 0.0000000000 0.0000000000 0.0000000000 0.0000000000 0.0000000000 0.0000000000 0.0000000000 0.0000000000 0.0000000000 0.0000000000 0.0000000000 0.0000000000 0.0000000000 0.0000000000 0.0000000000 0.0000000000 0.0000000000 0.0000000000 0.0000000000 0.0000000000 0.0000000000 0.0000000000 0.0000000000 0.0000000000 0.0000000000 0.0000000000 0.0000000000 0.0000000000 0.0000000000 0.0000000000 0.0000000000 0.0000000000 0.0000000000 0.0000000000 0.0000000000 0.5003574524 0.5021989136 0.5022839355 0.5036466064 0.5042359009 0.5050106201 0.5045959167 0.5068923645 0.5082014160 0.5091324463 0.5089443054 0.5091029968 0.5088289185 0.5079421387 0.5064864502 0.5066689758 0.5067375793 0.5069780884 0.5067450867 0.5061803284 0.5068439941 0.5070906372 0.5051040649 0.5034974976 0.5024152832 0.5041984558 0.5060807495 0.5068546753 0.5052516479 0.5050794373 0.5042043457 0.5052052612 0.5035014954 0.5050234375 0.5044031677 0.5047099609 0.5043367310 0.5063282776 0.5069797668 0.5077019958 0.5071776428 0.5085653381 0.5083392639 0.5090722351 0.5086176453 0.5106248779 0.5119580078 0.5120537720 0.5111791382 0.5123076782 0.5137746582 0.5153405762 0.5140044556 0.5143859863 0.5138154907 0.5141455078 0.5147570801 0.5147899170 0.5147539673 0.5148751831 0.5155680542 0.5153392334 0.5142186890 0.5140171509 0.5157874756 0.5171792603 0.5165785522 0.5145573120 0.5135149536 0.5141502686 0.5152175293 0.5140975342 0.5137494507 0.5124499512 0.5127120361 0.5126138306 0.5130065918 0.5138751831 0.5136868896 0.5143374634 0.5143189087 0.5139680786 0.5120823364 0.5119702148 0.5111369629 0.5120217896 0.5110751648 0.5123616943 0.5133200684 0.5139855347 0.5112766113 0.5109745483 0.5124786377 0.5162400513 0.5169843140 0.5174407349 0.5188187866 0.5180536499 0.5176203613 0.5167911987 0.5171575928 0.5171180420 0.5175474243 0.5195654297 0.5199385376 0.5214071045 0.5206007690 0.5232390747 0.5246237793 0.5243005981 0.5250585937 0.5270376587 0.5301188354 0.5296423340 0.5283222046 0.5292305908 0.5310906982 0.5337247314 0.5351613770 0.5354259033 0.5363808594 0.5366575928 0.5395200806 0.5411682739 0.5417374268 0.5412352905 0.5413050537 0.5415537109 0.5411634521 0.5406848755 0.5402846069 0.5396608276 0.5380932617
0.0000000000 0.0000000000 0.0000000000 0.0000000000 0.0000000000 0.0000000000 0.0000000000 0.0000000000 0.0000000000 0.0000000000 0.0000000000 0.0000000000 0.0000000000 0.0000000000 0.0000000000 0.0000000000 0.0000000000 0.0000000000 0.0000000000 0.0000000000 0.0000000000 0.0000000000 0.0000000000 0.0000000000 0.0000000000 0.0000000000 0.0000000000 0.0000000000 0.0000000000 0.0000000000 0.0000000000 0.0000000000 0.0000000000 0.0000000000 0.0000000000 0.0000000000 0.0000000000 0.0000000000 0.0000000000 0.0000000000 0.0000000000 0.0000000000 0.0000000000 0.0000000000 0.0000000000 0.0000000000 0.0000000000 0.0000000000 0.0000000000 0.0000000000 0.0000000000 0.0000000000 0.0000000000 0.0000000000 0.0000000000 0.0000000000 0.0000000000 0.0000000000 0.0000000000 0.0000000000 0.0000000000 0.0000000000 0.0000000000 0.0000000000 0.0000000000 0.0000000000 0.0000000000 0.0000000000 0.0000000000 0.0000000000 0.0000000000 0.0000000000 0.0000000000 0.0000000000 0.0000000000 0.0000000000 0.0000000000 0.0000000000 0.0000000000 0.0000000000 0.0000000000 0.0000000000 0.0000000000 0.0000000000 0.0000000000 0.0000000000 0.0000000000 0.0000000000 0.0000000000 0.0000000000 0.0000000000 0.0000000000 0.0000000000 0.0000000000 0.0000000000 0.0000000000 0.0000000000 0.0000000000 0.0000000000 0.0000000000 0.0000000000 0.0000000000 0.0000000000 0.0000000000 0.0000000000 0.0000000000 0.0000000000 0.0000000000 0.0000000000 0.0000000000 0.0000000000 0.0000000000 0.0000000000 0.0000000000 0.0000000000 0.0000000000 0.0000000000 0.0000000000 0.0000000000 0.0000000000 0.0000000000 0.0000000000 0.0000000000 0.0000000000 0.0000000000 0.0000000000 0.0000000000 0.0000000000 0.0000000000 0.0000000000 0.0000000000 0.0000000000 0.0000000000 0.0000000000 0.0000000000 0.0000000000 0.0000000000 0.0000000000 0.0000000000 0.0000000000 0.0000000000 0.0000000000 0.0000000000 0.0000000000 0.5023316040 0.5036681824 0.5048457031 0.5045975647 0.5035379028 0.5021651306 0.5016676636 0.5028449402 0.5048427734 0.5052114563 0.5056117859 0.5048560791 0.5077385864 0.5083041382 0.5092287903 0.5081499939 0.5078328857 0.5060138550 0.5042646179 0.5025773926 0.5035743713 0.5037169800 0.5043618164 0.5028388062 0.5025919189 0.5015617981 0.5018137817 0.5012346802 0.5016123962 0.5011268005 0.5005855713 0.5002889404 0.5007220154 0.5000734863 0.0000000000 0.0000000000 0.0000000000 0.0000000000 0.0000000000 0.5021484070 0.5043171082 0.5053243103 0.5048544312 0.5038843384 0.5060469360 0.5069519653 0.5076684570 0.5069613647 0.5077751770 0.5064495239 0.5068123474 0.5052724609 0.5056431885 0.5059135437 0.5079360352 0.5089239807 0.5086123657 0.5094194336 0.5100522156 0.5118982849 0.5120239258 0.5112873230 0.5113619995 0.5134216309 0.5166349487 0.5181657715 0.5175843506 0.5174500732 0.5167326050 0.5185029297 0.5192080078 0.5206863403 0.5226575317 0.5229526978 0.5235441895 0.5247164307 0.5264976196 0.5275674438 0.5282679443 0.5275202637 0.5281044312 0.5281098022 0.5288312378 0.5292188721 0.5273914795
0.0000000000 0.0000000000 0.0000000000 0.0000000000 0.0000000000 0.0000000000 0.0000000000 0.0000000000 0.0000000000 0.0000000000 0.0000000000 0.0000000000 0.0000000000 0.0000000000 0.0000000000 0.0000000000 0.0000000000 0.0000000000 0.0000000000 0.0000000000 0.0000000000 0.0000000000 0.0000000000 0.0000000000 0.0000000000 0.0000000000 0.0000000000 0.0000000000 0.0000000000 0.0000000000 0.0000000000 0.0000000000 0.0000000000 0.0000000000 0.0000000000 0.0000000000 0.0000000000 0.0000000000 0.0000000000 0.0000000000 0.0000000000 0.0000000000 0.0000000000 0.0000000000 0.0000000000 0.0000000000 0.0000000000 0.0000000000 0.0000000000 0.0000000000 0.0000000000 0.0000000000 0.0000000000 0.0000000000 0.0000000000 0.0000000000 0.0000000000 0.0000000000 0.0000000000 0.0000000000 0.0000000000 0.0000000000 0.0000000000 0.0000000000 0.0000000000 0.0000000000 0.0000000000 0.0000000000 0.0000000000 0.0000000000 0.0000000000 0.0000000000 0.0000000000 0.0000000000 0.0000000000 0.0000000000 0.0000000000 0.0000000000 0.0000000000 0.0000000000 0.0000000000 0.0000000000 0.0000000000 0.0000000000 0.0000000000 0.0000000000 0.0000000000 0.0000000000 0.0000000000 0.0000000000 0.0000000000 0.0000000000 0.0000000000 0.0000000000 0.0000000000 0.0000000000 0.0000000000 0.0000000000 0.0000000000 0.0000000000 0.0000000000 0.0000000000 0.0000000000 0.0000000000 0.0000000000 0.0000000000 0.0000000000 0.0000000000 0.0000000000 0.0000000000 0.0000000000 0.0000000000 0.0000000000 0.0000000000 0.0000000000 0.0000000000 0.0000000000 0.0000000000 0.0000000000 0.0000000000 0.0000000000 0.0000000000 0.0000000000 0.0000000000 0.0000000000 0.0000000000 0.0000000000 0.0000000000 0.0000000000 0.0000000000 0.0000000000 0.0000000000 0.0000000000 0.0000000000 0.0000000000 0.0000000000 0.0000000000 0.0000000000 0.0000000000 0.0000000000 0.0000000000 0.0000000000 0.0000000000 0.0000000000 0.0000000000 0.0000000000 0.0000000000 0.0000000000 0.0000000000 0.0000000000 0.0000000000 0.0000000000 0.0000000000 0.0000000000 0.0000000000 0.0000000000 0.0000000000 0.0000000000 0.0000000000 0.0000000000 0.0000000000 0.0000000000 0.0000000000 0.0000000000 0.0000000000 0.0000000000 0.0000000000 0.0000000000 0.0000000000 0.0000000000 0.0000000000 0.0000000000 0.0000000000 0.0000000000 0.0000000000 0.0000000000 0.0000000000 0.0000000000 0.0000000000 0.0000000000 0.0000000000 0.0000000000 0.0000000000 0.0000000000 0.0000000000 0.0000000000 0.0000000000 0.0000000000 0.0000000000 0.0000000000 0.0000000000 0.0000000000 0.0000000000 0.0000000000 0.0000000000 0.0000000000 0.0000000000 0.0000000000 0.0000000000 0.0000000000 0.0000000000 0.0000000000 0.0000000000 0.5002106934 0.0000000000 0.0000000000 0.0000000000 0.0000000000 0.5006609497 0.5025712891 0.5017953796 0.5009638367 0.0000000000 0.0000000000 0.0000000000 0.0000000000 0.0000000000 0.0000000000 0.5007798157 0.5016131592 0.5034015808 0.5043588562 0.5039486389 0.5036769714 0.5048855896 0.5058560791 0.5060646667 0.5053800049 0.5034153748
0.0000000000 0.0000000000 0.0000000000 0.0000000000 0.0000000000 0.0000000000 0.0000000000 0.0000000000 0.0000000000 0.0000000000 0.0000000000 0.0000000000 0.0000000000 0.0000000000 0.0000000000 0.0000000000 0.0000000000 0.0000000000 0.0000000000 0.0000000000 0.0000000000 0.0000000000 0.0000000000 0.0000000000 0.0000000000 0.0000000000 0.0000000000 0.0000000000 0.0000000000 0.0000000000 0.0000000000 0.0000000000 0.0000000000 0.0000000000 0.0000000000 0.0000000000 0.0000000000 0.0000000000 0.0000000000 0.0000000000 0.0000000000 0.0000000000 0.0000000000 0.0000000000 0.0000000000 0.0000000000 0.0000000000 0.0000000000 0.0000000000 0.0000000000 0.0000000000 0.0000000000 0.0000000000 0.0000000000 0.0000000000 0.0000000000 0.0000000000 0.0000000000 0.0000000000 0.0000000000 0.0000000000 0.0000000000 0.0000000000 0.0000000000 0.0000000000 0.0000000000 0.0000000000 0.0000000000 0.0000000000 0.0000000000 0.0000000000 0.0000000000 0.0000000000 0.0000000000 0.0000000000 0.0000000000 0.0000000000 0.0000000000 0.0000000000 0.0000000000 0.0000000000 0.0000000000 0.0000000000 0.0000000000 0.0000000000 0.0000000000 0.0000000000 0.0000000000 0.0000000000 0.0000000000 0.0000000000 0.0000000000 0.0000000000 0.0000000000 0.0000000000 0.0000000000 0.0000000000 0.0000000000 0.0000000000 0.0000000000 0.0000000000 0.0000000000 0.0000000000 0.0000000000 0.0000000000 0.0000000000 0.0000000000 0.0000000000 0.0000000000 0.0000000000 0.0000000000 0.0000000000 0.0000000000 0.0000000000 0.0000000000 0.0000000000 0.0000000000 0.0000000000 0.0000000000 0.0000000000 0.0000000000 0.0000000000 0.0000000000 0.0000000000 0.0000000000 0.0000000000 0.0000000000 0.0000000000 0.0000000000 0.0000000000 0.0000000000 0.0000000000 0.0000000000 0.0000000000 0.0000000000 0.0000000000 0.0000000000 0.0000000000 0.0000000000 0.0000000000 0.0000000000 0.0000000000 0.0000000000 0.0000000000 0.0000000000 0.0000000000 0.0000000000 0.0000000000 0.0000000000 0.0000000000 0.0000000000 0.0000000000 0.0000000000 0.0000000000 0.0000000000 0.0000000000 0.0000000000 0.0000000000 0.0000000000 0.0000000000 0.0000000000 0.0000000000 0.0000000000 0.0000000000 0.0000000000 0.0000000000 0.0000000000 0.0000000000 0.0000000000 0.0000000000 0.0000000000 0.0000000000 0.0000000000 0.0000000000 0.0000000000 0.0000000000 0.0000000000 0.0000000000 0.0000000000 0.0000000000 0.0000000000 0.0000000000 0.0000000000 0.0000000000 0.0000000000 0.0000000000 0.0000000000 0.0000000000 0.0000000000 0.0000000000 0.0000000000 0.0000000000 0.0000000000 0.0000000000 0.0000000000 0.0000000000 0.0000000000 0.0000000000 0.0000000000 0.0000000000 0.0000000000 0.0000000000 0.0000000000 0.0000000000 0.0000000000 0.0000000000 0.0000000000 0.0000000000 0.0000000000 0.0000000000 0.0000000000 0.0000000000 0.0000000000 0.0000000000 0.0000000000 0.0000000000 0.0000000000 0.0000000000 0.0000000000 0.0000000000 0.0000000000 0.0000000000 0.0000000000 0.0000000000 0.0000000000 0.0000000000 0.0000000000 0.0000000000 0.0000000000
0.0000000000 0.0000000000 0.0000000000 0.0000000000 0.0000000000 0.0000000000 0.0000000000 0.0000000000 0.0000000000 0.0000000000 0.0000000000 0.0000000000 0.0000000000 0.0000000000 0.0000000000 0.0000000000 0.0000000000 0.0000000000 0.0000000000 0.0000000000 0.0000000000 0.0000000000 0.0000000000 0.0000000000 0.0000000000 0.0000000000 0.0000000000 0.0000000000 0.0000000000 0.0000000000 0.0000000000 0.0000000000 0.0000000000 0.0000000000 0.0000000000 0.0000000000 0.0000000000 0.0000000000 0.0000000000 0.0000000000 0.0000000000 0.0000000000 0.0000000000 0.0000000000 0.0000000000 0.0000000000 0.0000000000 0.0000000000 0.0000000000 0.0000000000 0.0000000000 0.0000000000 0.0000000000 0.0000000000 0.0000000000 0.0000000000 0.0000000000 0.0000000000 0.0000000000 0.0000000000 0.0000000000 0.0000000000 0.0000000000 0.0000000000 0.0000000000 0.0000000000 0.0000000000 0.0000000000 0.0000000000 0.0000000000 0.0000000000 0.0000000000 0.0000000000 0.0000000000 0.0000000000 0.0000000000 0.0000000000 0.0000000000 0.0000000000 0.0000000000 0.0000000000 0.0000000000 0.0000000000 0.0000000000 0.0000000000 0.0000000000 0.0000000000 0.0000000000 0.0000000000 0.0000000000 0.0000000000 0.0000000000 0.0000000000 0.0000000000 0.0000000000 0.0000000000 0.0000000000 0.0000000000 0.0000000000 0.0000000000 0.0000000000 0.0000000000 0.0000000000 0.0000000000 0.0000000000 0.0000000000 0.0000000000 0.0000000000 0.0000000000 0.0000000000 0.0000000000 0.0000000000 0.0000000000 0.0000000000 0.0000000000 0.0000000000 0.0000000000 0.0000000000 0.0000000000 0.0000000000 0.0000000000 0.0000000000 0.0000000000 0.0000000000 0.0000000000 0.0000000000 0.0000000000 0.0000000000 0.0000000000 0.0000000000 0.0000000000 0.0000000000 0.0000000000 0.0000000000 0.0000000000 0.0000000000 0.0000000000 0.0000000000 0.0000000000 0.0000000000 0.0000000000 0.0000000000 0.0000000000 0.0000000000 0.0000000000 0.0000000000 0.0000000000 0.0000000000 0.0000000000 0.0000000000 0.0000000000 0.0000000000 0.0000000000 0.0000000000 0.0000000000 0.0000000000 0.0000000000 0.0000000000 0.0000000000 0.0000000000 0.0000000000 0.0000000000 0.0000000000 0.0000000000 0.0000000000 0.0000000000 0.0000000000 0.0000000000 0.0000000000 0.0000000000 0.0000000000 0.0000000000 0.0000000000 0.0000000000 0.0000000000 0.0000000000 0.0000000000 0.0000000000 0.0000000000 0.0000000000 0.0000000000 0.0000000000 0.0000000000 0.0000000000 0.0000000000 0.0000000000 0.0000000000 0.0000000000 0.0000000000 0.0000000000 0.0000000000 0.0000000000 0.0000000000 0.0000000000 0.0000000000 0.0000000000 0.0000000000 0.0000000000 0.0000000000 0.0000000000 0.0000000000 0.0000000000 0.0000000000 0.0000000000 0.0000000000 0.0000000000 0.0000000000 0.0000000000 0.0000000000 0.0000000000 0.0000000000 0.0000000000 0.0000000000 0.0000000000 0.0000000000 0.0000000000 0.0000000000 0.0000000000 0.0000000000 0.0000000000 0.0000000000 0.0000000000 0.0000000000 0.0000000000 0.0000000000 0.0000000000 0.0000000000 0.0000000000 0.0000000000
0.0000000000 0.0000000000 0.0000000000 0.0000000000 0.0000000000 0.0000000000 0.0000000000 0.0000000000 0.0000000000 0.0000000000 0.0000000000 0.0000000000 0.0000000000 0.0000000000 0.0000000000 0.0000000000 0.0000000000 0.0000000000 0.0000000000 0.0000000000 0.0000000000 0.0000000000 0.0000000000 0.0000000000 0.0000000000 0.0000000000 0.0000000000 0.0000000000 0.0000000000 0.0000000000 0.0000000000 0.0000000000 0.0000000000 0.0000000000 0.0000000000 0.0000000000 0.0000000000 0.0000000000 0.0000000000 0.0000000000 0.0000000000 0.0000000000 0.0000000000 0.0000000000 0.0000000000 0.0000000000 0.0000000000 0.0000000000 0.0000000000 0.0000000000 0.0000000000 0.0000000000 0.0000000000 0.0000000000 0.0000000000 0.0000000000 0.0000000000 0.0000000000 0.0000000000 0.0000000000 0.0000000000 0.0000000000 0.0000000000 0.0000000000 0.0000000000 0.0000000000 0.0000000000 0.0000000000 0.0000000000 0.0000000000 0.0000000000 0.0000000000 0.0000000000 0.0000000000 0.0000000000 0.0000000000 0.0000000000 0.0000000000 0.0000000000 0.0000000000 0.0000000000 0.0000000000 0.0000000000 0.0000000000 0.0000000000 0.0000000000 0.0000000000 0.0000000000 0.0000000000 0.0000000000 0.0000000000 0.0000000000 0.0000000000 0.0000000000 0.0000000000 0.0000000000 0.0000000000 0.0000000000 0.0000000000 0.0000000000 0.0000000000 0.0000000000 0.0000000000 0.0000000000 0.0000000000 0.0000000000 0.0000000000 0.0000000000 0.0000000000 0.0000000000 0.0000000000 0.0000000000 0.0000000000 0.0000000000 0.0000000000 0.0000000000 0.0000000000 0.0000000000 0.0000000000 0.0000000000 0.0000000000 0.0000000000 0.0000000000 0.0000000000 0.0000000000 0.0000000000 0.0000000000 0.0000000000 0.0000000000 0.0000000000 0.0000000000 0.0000000000 0.0000000000 0.0000000000 0.0000000000 0.0000000000 0.0000000000 0.0000000000 0.0000000000 0.0000000000 0.0000000000 0.0000000000 0.0000000000 0.0000000000 0.0000000000 0.0000000000 0.0000000000 0.0000000000 0.0000000000 0.0000000000 0.0000000000 0.0000000000 0.0000000000 0.0000000000 0.0000000000 0.0000000000 0.0000000000 0.0000000000 0.0000000000 0.0000000000 0.0000000000 0.0000000000 0.0000000000 0.0000000000 0.0000000000 0.0000000000 0.0000000000 0.0000000000 0.0000000000 0.0000000000 0.0000000000 0.0000000000 0.0000000000 0.0000000000 0.0000000000 0.0000000000 0.0000000000 0.0000000000 0.0000000000 0.0000000000 0.0000000000 0.0000000000 0.0000000000 0.0000000000 0.0000000000 0.0000000000 0.0000000000 0.0000000000 0.0000000000 0.0000000000 0.0000000000 0.0000000000 0.0000000000 0.0000000000 0.0000000000 0.0000000000 0.0000000000 0.0000000000 0.0000000000 0.0000000000 0.0000000000 0.0000000000 0.0000000000 0.0000000000 0.0000000000 0.0000000000 0.0000000000 0.0000000000 0.0000000000 0.0000000000 0.0000000000 0.0000000000 0.0000000000 0.0000000000 0.0000000000 0.0000000000 0.0000000000 0.0000000000 0.0000000000 0.0000000000 0.0000000000 0.0000000000 0.0000000000 0.0000000000 0.0000000000 0.0000000000 0.0000000000 0.0000000000 0.0000000000
0.0000000000 0.0000000000 0.0000000000 0.0000000000 0.0000000000 0.0000000000 0.0000000000 0.0000000000 0.0000000000 0.0000000000 0.0000000000 0.0000000000 0.0000000000 0.0000000000 0.0000000000 0.0000000000 0.0000000000 0.0000000000 0.0000000000 0.0000000000 0.0000000000 0.0000000000 0.0000000000 0.0000000000 0.0000000000 0.0000000000 0.0000000000 0.0000000000 0.0000000000 0.0000000000 0.0000000000 0.0000000000 0.0000000000 0.0000000000 0.0000000000 0.0000000000 0.0000000000 0.0000000000 0.0000000000 0.0000000000 0.0000000000 0.0000000000 0.0000000000 0.0000000000 0.0000000000 0.0000000000 0.0000000000 0.0000000000 0.0000000000 0.0000000000 0.0000000000 0.0000000000 0.0000000000 0.0000000000 0.0000000000 0.0000000000 0.0000000000 0.0000000000 0.0000000000 0.0000000000 0.0000000000 0.0000000000 0.0000000000 0.0000000000 0.0000000000 0.0000000000 0.0000000000 0.0000000000 0.0000000000 0.0000000000 0.0000000000 0.0000000000 0.0000000000 0.0000000000 0.0000000000 0.0000000000 0.0000000000 0.0000000000 0.0000000000 0.0000000000 0.0000000000 0.0000000000 0.0000000000 0.0000000000 0.0000000000 0.0000000000 0.0000000000 0.0000000000 0.0000000000 0.0000000000 0.0000000000 0.0000000000 0.0000000000 0.0000000000 0.0000000000 0.0000000000 0.0000000000 0.0000000000 0.0000000000 0.0000000000 0.0000000000 0.0000000000 0.0000000000 0.0000000000 0.0000000000 0.0000000000 0.0000000000 0.0000000000 0.0000000000 0.0000000000 0.0000000000 0.0000000000 0.0000000000 0.0000000000 0.0000000000 0.0000000000 0.0000000000 0.0000000000 0.0000000000 0.0000000000 0.0000000000 0.0000000000 0.0000000000 0.0000000000 0.0000000000 0.0000000000 0.0000000000 0.0000000000 0.0000000000 0.0000000000 0.0000000000 0.0000000000 0.0000000000 0.0000000000 0.0000000000 0.0000000000 0.0000000000 0.0000000000 0.0000000000 0.0000000000 0.0000000000 0.0000000000 0.0000000000 0.0000000000 0.0000000000 0.0000000000 0.0000000000 0.0000000000 0.0000000000 0.0000000000 0.0000000000 0.0000000000 0.0000000000 0.0000000000 0.0000000000 0.0000000000 0.0000000000 0.0000000000 0.0000000000 0.0000000000 0.0000000000 0.0000000000 0.0000000000 0.0000000000 0.0000000000 0.0000000000 0.0000000000 0.0000000000 0.0000000000 0.0000000000 0.0000000000 0.0000000000 0.0000000000 0.0000000000 0.0000000000 0.0000000000 0.0000000000 0.0000000000 0.0000000000 0.0000000000 0.0000000000 0.0000000000 0.0000000000 0.0000000000 0.0000000000 0.0000000000 0.0000000000 0.0000000000 0.0000000000 0.0000000000 0.0000000000 0.0000000000 0.0000000000 0.0000000000 0.0000000000 0.0000000000 0.0000000000 0.0000000000 0.0000000000 0.0000000000 0.0000000000 0.0000000000 0.0000000000 0.0000000000 0.0000000000 0.0000000000 0.0000000000 0.0000000000 0.0000000000 0.0000000000 0.0000000000 0.0000000000 0.0000000000 0.0000000000 0.0000000000 0.0000000000 0.0000000000 0.0000000000 0.0000000000 0.0000000000 0.0000000000 0.0000000000 0.0000000000 0.0000000000 0.0000000000 0.0000000000 0.0000000000 0.0000000000 0.0000000000
0.0000000000 0.0000000000 0.0000000000 0.0000000000 0.0000000000 0.0000000000 0.0000000000 0.0000000000 0.0000000000 0.0000000000 0.0000000000 0.0000000000 0.0000000000 0.0000000000 0.0000000000 0.0000000000 0.0000000000 0.0000000000 0.0000000000 0.0000000000 0.0000000000 0.0000000000 0.0000000000 0.0000000000 0.0000000000 0.0000000000 0.0000000000 0.0000000000 0.0000000000 0.0000000000 0.0000000000 0.0000000000 0.0000000000 0.0000000000 0.0000000000 0.0000000000 0.0000000000 0.0000000000 0.0000000000 0.0000000000 0.0000000000 0.0000000000 0.0000000000 0.0000000000 0.0000000000 0.0000000000 0.0000000000 0.0000000000 0.0000000000 0.0000000000 0.0000000000 0.0000000000 0.0000000000 0.0000000000 0.0000000000 0.0000000000 0.0000000000 0.0000000000 0.0000000000 0.0000000000 0.0000000000 0.0000000000 0.0000000000 0.0000000000 0.0000000000 0.0000000000 0.0000000000 0.0000000000 0.0000000000 0.0000000000 0.0000000000 0.0000000000 0.0000000000 0.0000000000 0.0000000000 0.0000000000 0.0000000000 0.0000000000 0.0000000000 0.0000000000 0.0000000000 0.0000000000 0.0000000000 0.0000000000 0.0000000000 0.0000000000 0.0000000000 0.0000000000 0.0000000000 0.0000000000 0.0000000000 0.0000000000 0.0000000000 0.0000000000 0.0000000000 0.0000000000 0.0000000000 0.0000000000 0.0000000000 0.0000000000 0.0000000000 0.0000000000 0.0000000000 0.0000000000 0.0000000000 0.0000000000 0.0000000000 0.0000000000 0.0000000000 0.0000000000 0.0000000000 0.0000000000 0.0000000000 0.0000000000 0.0000000000 0.0000000000 0.0000000000 0.0000000000 0.0000000000 0.0000000000 0.0000000000 0.0000000000 0.0000000000 0.0000000000 0.0000000000 0.0000000000 0.0000000000 0.0000000000 0.0000000000 0.0000000000 0.0000000000 0.0000000000 0.0000000000 0.0000000000 0.0000000000 0.0000000000 0.0000000000 0.0000000000 0.0000000000 0.0000000000 0.0000000000 0.0000000000 0.0000000000 0.0000000000 0.0000000000 0.0000000000 0.0000000000 0.0000000000 0.0000000000 0.0000000000 0.0000000000 0.0000000000 0.0000000000 0.0000000000 0.0000000000 0.0000000000 0.0000000000 0.0000000000 0.0000000000 0.0000000000 0.0000000000 0.0000000000 0.0000000000 0.0000000000 0.0000000000 0.0000000000 0.0000000000 0.0000000000 0.0000000000 0.0000000000 0.0000000000 0.0000000000 0.0000000000 0.0000000000 0.0000000000 0.0000000000 0.0000000000 0.0000000000 0.0000000000 0.0000000000 0.0000000000 0.0000000000 0.0000000000 0.0000000000 0.0000000000 0.0000000000 0.0000000000 0.0000000000 0.0000000000 0.0000000000 0.0000000000 0.0000000000 0.0000000000 0.0000000000 0.0000000000 0.0000000000 0.0000000000 0.0000000000 0.0000000000 0.0000000000 0.0000000000 0.0000000000 0.0000000000 0.0000000000 0.0000000000 0.0000000000 0.0000000000 0.0000000000 0.0000000000 0.0000000000 0.0000000000 0.0000000000 0.0000000000 0.0000000000 0.0000000000 0.0000000000 0.0000000000 0.0000000000 0.0000000000 0.0000000000 0.0000000000 0.0000000000 0.0000000000 0.0000000000 0.0000000000 0.0000000000 0.0000000000 0.0000000000 0.0000000000
0.0000000000 0.0000000000 0.0000000000 0.0000000000 0.0000000000 0.0000000000 0.0000000000 0.0000000000 0.0000000000 0.0000000000 0.0000000000 0.0000000000 0.0000000000 0.0000000000 0.0000000000 0.0000000000 0.0000000000 0.0000000000 0.0000000000 0.0000000000 0.0000000000 0.0000000000 0.0000000000 0.0000000000 0.0000000000 0.0000000000 0.0000000000 0.0000000000 0.0000000000 0.0000000000 0.0000000000 0.0000000000 0.0000000000 0.0000000000 0.0000000000 0.0000000000 0.0000000000 0.0000000000 0.0000000000 0.0000000000 0.0000000000 0.0000000000 0.0000000000 0.0000000000 0.0000000000 0.0000000000 0.0000000000 0.0000000000 0.0000000000 0.0000000000 0.0000000000 0.0000000000 0.0000000000 0.0000000000 0.0000000000 0.0000000000 0.0000000000 0.0000000000 0.0000000000 0.0000000000 0.0000000000 0.0000000000 0.0000000000 0.0000000000 0.0000000000 0.0000000000 0.0000000000 0.0000000000 0.0000000000 0.0000000000 0.0000000000 0.0000000000 0.0000000000 0.0000000000 0.0000000000 0.0000000000 0.0000000000 0.0000000000 0.0000000000 0.0000000000 0.0000000000 0.0000000000 0.0000000000 0.0000000000 0.0000000000 0.0000000000 0.0000000000 0.0000000000 0.0000000000 0.0000000000 0.0000000000 0.0000000000 0.0000000000 0.0000000000 0.0000000000 0.0000000000 0.0000000000 0.0000000000 0.0000000000 0.0000000000 0.0000000000 0.0000000000 0.0000000000 0.0000000000 0.0000000000 0.0000000000 0.0000000000 0.0000000000 0.0000000000 0.0000000000 0.0000000000 0.0000000000 0.0000000000 0.0000000000 0.0000000000 0.0000000000 0.0000000000 0.0000000000 0.0000000000 0.0000000000 0.0000000000 0.0000000000 0.0000000000 0.0000000000 0.0000000000 0.0000000000 0.0000000000 0.0000000000 0.0000000000 0.0000000000 0.0000000000 0.0000000000 0.0000000000 0.0000000000 0.0000000000 0.0000000000 0.0000000000 0.0000000000 0.0000000000 0.0000000000 0.0000000000 0.0000000000 0.0000000000 0.0000000000 0.0000000000 0.0000000000 0.0000000000 0.0000000000 0.0000000000 0.0000000000 0.0000000000 0.0000000000 0.0000000000 0.0000000000 0.0000000000 0.0000000000 0.0000000000 0.0000000000 0.0000000000 0.0000000000 0.0000000000 0.0000000000 0.0000000000 0.0000000000 0.0000000000 0.0000000000 0.0000000000 0.0000000000 0.0000000000 0.0000000000 0.0000000000 0.0000000000 0.0000000000 0.0000000000 0.0000000000 0.0000000000 0.0000000000 0.0000000000 0.0000000000 0.0000000000 0.0000000000 0.0000000000 0.0000000000 0.0000000000 0.0000000000 0.0000000000 0.0000000000 0.0000000000 0.0000000000 0.0000000000 0.0000000000 0.0000000000 0.0000000000 0.0000000000 0.0000000000 0.0000000000 0.0000000000 0.0000000000 0.0000000000 0.0000000000 0.0000000000 0.0000000000 0.0000000000 0.0000000000 0.0000000000 0.0000000000 0.0000000000 0.0000000000 0.0000000000 0.0000000000 0.0000000000 0.0000000000 0.0000000000 0.0000000000 0.0000000000 0.0000000000 0.0000000000 0.0000000000 0.0000000000 0.0000000000 0.0000000000 0.0000000000 0.0000000000 0.0000000000 0.0000000000 0.0000000000 0.0000000000 0.0000000000 0.0000000000
